#!ascii version of lh.surftest_outer_skull_surface
10242 20480
-32.053509  -95.393433  -43.961090  0
-30.463945  -95.788742  -47.186256  0
-28.959816  -96.020416  -50.344803  0
-30.508392  -95.167091  -53.176750  0
-31.900112  -94.278954  -55.876938  0
-30.688477  -94.303558  -58.502014  0
70.600487  -57.401138  -57.153923  0
70.183975  -57.950874  -59.783730  0
69.225250  -59.661003  -57.689056  0
67.712349  -62.129959  -58.443924  0
66.079681  -64.755226  -59.305305  0
65.709839  -65.974106  -53.247841  0
64.989273  -66.799713  -56.690506  0
64.321533  -67.469467  -60.217751  0
62.402580  -70.213898  -61.150856  0
60.277092  -72.946838  -62.087242  0
57.909447  -75.645081  -63.016731  0
61.319424  -73.025696  -41.228050  0
60.353786  -74.137421  -44.854214  0
59.399673  -75.168289  -48.531425  0
55.516224  -79.479034  -45.752304  0
56.998459  -77.830559  -49.058201  0
58.440910  -76.105667  -52.264339  0
57.450661  -76.939301  -56.060959  0
56.402058  -77.667023  -59.940445  0
55.286850  -78.299057  -63.929443  0
52.420963  -80.897255  -64.807968  0
49.334358  -83.407822  -65.625977  0
46.039162  -85.777855  -66.353004  0
45.583717  -86.702972  -58.569363  0
44.086388  -87.358902  -62.725887  0
42.531654  -87.955231  -66.960709  0
38.809967  -89.907532  -67.430267  0
34.887329  -91.626480  -67.759575  0
30.788826  -93.128723  -67.962151  0
50.144783  -83.826042  -14.506853  0
48.914978  -85.263901  -18.005692  0
47.624023  -86.600647  -21.536808  0
42.706421  -89.444962  -18.240414  0
44.525230  -88.708679  -21.671894  0
46.255074  -87.807823  -25.109343  0
44.789486  -88.890633  -28.740292  0
43.229069  -89.879532  -32.438011  0
41.597649  -90.798119  -36.196682  0
28.837185  -95.826263  -18.395142  0
30.759476  -95.441681  -21.973221  0
32.678463  -94.961685  -25.583328  0
27.206333  -97.100685  -29.300774  0
30.937363  -95.841171  -29.276136  0
34.570107  -94.379333  -29.201324  0
36.409012  -93.659058  -32.809597  0
38.185852  -92.754929  -36.405598  0
39.919590  -91.644745  -40.005486  0
38.203548  -92.399628  -43.858871  0
36.446129  -93.039764  -47.756020  0
34.639786  -93.544098  -51.694893  0
29.046886  -96.291168  -48.003975  0
30.889662  -95.162941  -51.812241  0
32.770096  -93.899452  -55.678764  0
30.813660  -94.122375  -59.725948  0
28.746189  -94.276031  -63.855576  0
26.550106  -94.450623  -68.055954  0
22.219299  -95.628693  -68.051682  0
17.850658  -96.675812  -67.948349  0
13.494427  -97.568024  -67.735031  0
14.279268  -98.013382  -59.441471  0
11.764862  -98.021820  -63.425209  0
9.188112  -98.249710  -67.396248  0
4.950863  -98.661339  -66.919266  0
0.790367  -98.775558  -66.299393  0
-3.285056  -98.613953  -65.541534  0
7.173780  -100.237846  -43.472404  0
4.902148  -99.925888  -47.025017  0
2.555723  -99.531204  -50.594265  0
-3.212408  -99.850960  -46.290756  0
-1.511164  -99.492065  -50.177078  0
0.151576  -99.141357  -54.179291  0
-2.290133  -98.812164  -57.751961  0
-4.759976  -98.535568  -61.262856  0
-7.267273  -98.239906  -64.661224  0
-11.151827  -97.740211  -63.687408  0
-14.928492  -97.198929  -62.663410  0
-18.567507  -96.667618  -61.641342  0
-17.665131  -97.776276  -55.041168  0
-19.831423  -97.017044  -57.939350  0
-22.016865  -96.148636  -60.670544  0
-25.216471  -95.606102  -59.789608  0
-28.116907  -94.999023  -59.037468  0
75.058044  -5.281126  30.105011  0
75.859955  -7.019812  28.264145  0
76.687119  -8.822727  26.212517  0
75.698273  -12.460539  29.116760  0
76.666687  -11.632505  26.568356  0
77.497177  -10.665058  23.991039  0
78.251923  -12.537088  21.621538  0
78.926117  -14.437685  19.117546  0
79.507294  -16.359201  16.490253  0
73.370338  -24.275175  30.878260  0
74.810669  -23.473564  28.068123  0
76.135971  -22.603861  25.260618  0
75.761742  -28.013374  22.947823  0
76.619514  -24.803326  22.700932  0
77.320953  -21.657646  22.444555  0
78.352890  -20.622601  19.597549  0
79.238060  -19.496746  16.700878  0
79.990799  -18.290161  13.749184  0
80.379410  -20.225357  10.904253  0
80.681885  -22.164455  7.970304  0
80.905807  -24.102959  4.966534  0
79.393433  -28.800003  8.269280  0
80.243683  -27.434088  5.106069  0
81.049034  -26.026466  1.911170  0
81.096527  -27.918036  -1.185024  0
81.030457  -29.776436  -4.323775  0
80.849998  -31.620728  -7.512830  0
62.919472  -49.858810  33.230797  0
64.760193  -49.107994  30.288643  0
66.527039  -48.285652  27.288185  0
64.794571  -53.653248  24.481770  0
66.558601  -50.554634  24.391987  0
68.226242  -47.397034  24.259811  0
69.848495  -46.446350  21.218554  0
71.373062  -45.435181  18.167202  0
72.776627  -44.360428  15.099399  0
63.729370  -62.022797  12.212175  0
65.691681  -59.041473  12.227636  0
67.536514  -55.985252  12.224689  0
68.506531  -56.936142  5.902947  0
68.916428  -54.912384  9.074044  0
69.276611  -52.856026  12.201120  0
70.939941  -49.661865  12.156433  0
72.539795  -46.435799  12.092083  0
74.042427  -43.217438  12.005112  0
75.165741  -42.001549  8.875566  0
76.161209  -40.707584  5.702183  0
77.065811  -39.337372  2.479371  0
75.242805  -44.518143  -0.620997  0
76.631149  -41.214867  -0.690692  0
77.927139  -37.906532  -0.789174  0
78.786713  -36.438618  -4.092679  0
79.669586  -34.955391  -7.417779  0
80.576859  -33.470909  -10.748814  0
80.236618  -35.331818  -14.012649  0
79.841545  -37.200928  -17.284784  0
79.396469  -39.080048  -20.555374  0
77.038361  -43.899899  -17.211723  0
78.007133  -42.443668  -20.526426  0
78.909363  -40.966827  -23.817055  0
78.384308  -42.841858  -27.059406  0
77.810959  -44.676907  -30.276142  0
77.171768  -46.449982  -33.467506  0
71.174271  -57.141190  -17.044798  0
72.190552  -55.631443  -20.387184  0
73.215675  -54.126328  -23.703114  0
70.940216  -58.850655  -26.950325  0
72.630402  -55.767937  -26.958107  0
74.205536  -52.641487  -26.978386  0
75.097549  -51.170528  -30.209278  0
75.845825  -49.682030  -33.413177  0
76.455276  -48.145844  -36.632721  0
75.660553  -49.753212  -39.768482  0
74.799072  -51.268883  -42.871193  0
73.895920  -52.698669  -45.930397  0
71.804993  -57.089211  -42.837555  0
72.413239  -55.546284  -45.873322  0
72.984550  -54.049301  -48.921677  0
72.100159  -55.314598  -51.809757  0
71.282944  -56.460449  -54.559410  0
71.905869  -55.243828  -57.116295  0
74.781258  51.309265  -59.543812  0
75.704926  49.851311  -57.350113  0
77.251389  47.499847  -57.923485  0
78.751236  44.903076  -58.575565  0
78.664719  44.100189  -52.552391  0
79.451599  43.041309  -55.874619  0
80.136627  42.060783  -59.253967  0
81.363068  38.970634  -59.936508  0
82.413460  35.640846  -60.612656  0
83.287430  32.101913  -61.267349  0
79.543480  36.573978  -40.393703  0
80.356827  35.204185  -43.873684  0
81.171127  33.866116  -47.372044  0
81.647095  28.243439  -44.445755  0
81.826523  30.387886  -47.718266  0
81.953224  32.540039  -50.910294  0
82.688759  31.203388  -54.519005  0
83.376045  29.833651  -58.200180  0
83.982925  28.399885  -61.882473  0
84.499207  24.570185  -62.448803  0
84.856766  20.632370  -62.966793  0
85.092590  16.612129  -63.435440  0
83.992157  16.053717  -56.208794  0
84.613914  14.330485  -60.046989  0
85.231491  12.539750  -63.845314  0
85.285446  8.419664  -64.179474  0
85.288696  4.227544  -64.416473  0
85.316437  -0.056425  -64.538269  0
80.691818  21.023270  -13.985786  0
81.009857  19.349178  -17.372362  0
81.310440  17.645943  -20.798351  0
81.762772  12.083838  -17.638523  0
81.704697  13.991663  -20.932293  0
81.618759  15.926623  -24.256458  0
81.937302  14.199465  -27.733034  0
82.255142  12.459453  -31.229553  0
82.571716  10.697090  -34.759392  0
83.186340  -2.623577  -17.855856  0
83.165527  -0.783314  -21.204369  0
83.128586  1.088715  -24.586788  0
83.885422  -4.572420  -28.030106  0
83.472565  -0.787272  -28.028149  0
83.084335  2.991250  -27.996857  0
83.032516  4.923179  -31.424221  0
82.967575  6.890885  -34.865273  0
82.894653  8.911256  -38.325539  0
83.221123  7.102836  -41.923206  0
83.544342  5.264503  -45.560043  0
83.873573  3.389220  -49.252750  0
84.530701  -2.761230  -45.641235  0
84.336197  -0.695754  -49.281418  0
84.229721  1.481498  -53.007305  0
84.622772  -0.450499  -56.814873  0
85.041733  -2.411606  -60.662922  0
85.461563  -4.421742  -64.542770  0
85.787247  -8.821270  -64.446327  0
86.270721  -13.167925  -64.271599  0
86.763458  -17.349621  -64.037430  0
86.789154  -16.916721  -56.332542  0
86.955902  -19.077995  -60.023293  0
87.023842  -21.287334  -63.756432  0
86.831573  -24.998959  -63.429535  0
86.101212  -28.584520  -63.042900  0
84.909599  -32.122631  -62.577194  0
85.903351  -23.052811  -41.542145  0
85.803055  -24.897896  -44.976246  0
85.536850  -26.802507  -48.430786  0
83.363800  -31.577202  -44.471035  0
84.244949  -30.140783  -48.163498  0
85.127914  -28.806850  -51.890373  0
84.614624  -30.940252  -55.328674  0
84.038254  -33.208904  -58.714981  0
83.421120  -35.593933  -62.019070  0
81.775635  -38.920357  -61.366241  0
80.045303  -42.054810  -60.629791  0
78.275299  -45.008263  -59.835976  0
78.159241  -44.046516  -53.370171  0
77.386917  -45.931168  -56.284569  0
76.522018  -47.809547  -59.025314  0
74.846695  -50.467331  -58.249260  0
73.298309  -52.959526  -57.574444  0
-29.417845  89.267860  -64.423279  0
-28.630627  88.159149  -67.758179  0
-27.988586  87.138924  -71.519135  0
-21.495171  89.812500  -71.491608  0
-24.473251  88.056015  -73.632141  0
-27.568684  86.318405  -75.508682  0
-27.349054  85.617783  -79.350517  0
-27.177938  84.779053  -82.585358  0
-26.845634  83.483902  -84.918694  0
-7.199122  97.694992  -77.883987  0
-10.348812  95.635468  -80.525528  0
-13.565361  93.009720  -82.621658  0
-8.446132  91.760986  -85.795792  0
-12.831939  91.238281  -85.117828  0
-16.784424  90.103653  -84.179749  0
-19.974270  87.150406  -85.266068  0
-23.112461  84.266914  -85.969208  0
-26.174484  81.461578  -86.352859  0
-25.086056  78.595367  -87.049286  0
-23.643532  74.998444  -87.219513  0
-22.010452  70.926117  -87.135544  0
-14.799480  73.440033  -87.890030  0
-17.610456  70.009842  -87.558395  0
-20.353569  66.630478  -87.046417  0
-18.773537  62.288803  -87.059219  0
-17.296709  57.984596  -87.154999  0
-15.913893  53.735077  -87.292931  0
27.700977  85.037407  -78.815063  0
25.316227  84.931816  -82.029984  0
22.773037  84.443481  -84.467834  0
28.436237  79.286301  -85.167580  0
24.216576  81.216705  -85.705177  0
19.932341  83.271667  -86.169327  0
16.750816  81.310013  -87.269531  0
13.324551  78.682755  -87.920349  0
9.825079  75.637383  -88.273933  0
31.713615  63.355965  -85.322403  0
27.489998  65.013260  -85.886459  0
23.296322  66.591385  -86.589272  0
20.424706  59.056686  -86.634079  0
19.771496  63.584587  -86.949104  0
19.135414  68.102448  -87.292938  0
14.971673  69.570343  -87.871750  0
10.738461  71.006775  -88.256271  0
6.384570  72.398193  -88.447052  0
3.049739  69.097313  -88.506226  0
-0.181552  65.789429  -88.492767  0
-3.310850  62.497444  -88.436127  0
2.016629  56.980381  -88.423187  0
-2.139154  58.141518  -88.426590  0
-6.318452  59.239277  -88.335358  0
-9.182413  56.017616  -88.149841  0
-11.923168  52.803642  -87.843201  0
-14.620024  49.554752  -87.456100  0
-13.417540  45.484306  -87.614792  0
-12.295246  41.552628  -87.702751  0
-11.220543  37.731487  -87.661545  0
-4.577806  39.849613  -87.804749  0
-7.388057  36.923637  -87.592056  0
-10.153920  33.946251  -87.506546  0
-9.066777  30.140953  -87.343704  0
-7.950902  26.338333  -87.307983  0
-6.818846  22.632145  -87.465240  0
10.768847  35.210140  -88.170868  0
7.988434  32.638885  -87.913849  0
5.193599  29.984175  -87.535492  0
9.612650  24.989269  -87.864944  0
6.052783  26.135139  -87.519501  0
2.369875  27.231745  -87.231918  0
-0.440394  24.440651  -87.171219  0
-3.153397  21.712246  -87.388000  0
-5.698018  19.115089  -87.764809  0
-4.620902  15.811481  -88.086807  0
-3.612015  12.676409  -88.330528  0
-2.679447  9.647890  -88.464645  0
2.793879  10.933178  -88.396599  0
0.402354  8.813755  -88.477463  0
-1.824423  6.699684  -88.519073  0
-1.060963  3.861079  -88.540771  0
-0.424786  1.191301  -88.555344  0
-2.215922  -0.539348  -88.549522  0
0.006515  -1.259902  -88.567429  0
-83.798416  -0.357529  -60.083122  0
-83.880005  0.087666  -63.447365  0
-84.255997  0.480878  -67.069565  0
-84.115234  6.471294  -66.430740  0
-84.509903  3.733675  -68.701782  0
-84.841827  0.826745  -70.800949  0
-85.441086  1.121604  -74.537643  0
-85.807419  1.354248  -78.150902  0
-85.693344  1.507951  -81.413315  0
-84.977898  20.843252  -70.756348  0
-85.426849  17.969931  -73.520195  0
-85.719376  14.938834  -76.069962  0
-84.756165  19.139793  -79.641068  0
-85.456718  15.438726  -79.162445  0
-85.825432  11.765810  -78.413559  0
-85.724197  8.477913  -80.549957  0
-85.403496  5.088209  -82.453262  0
-84.883110  1.583261  -84.073227  0
-83.207779  1.614233  -86.019867  0
-80.586090  1.635522  -87.296974  0
-77.112946  1.645067  -88.014801  0
-76.594269  8.916565  -87.592758  0
-74.931847  5.316728  -88.104408  0
-73.054016  1.622326  -88.335281  0
-68.707840  1.561355  -88.443329  0
-64.282196  1.473689  -88.472343  0
-59.877998  1.376000  -88.484039  0
-74.390854  50.638168  -74.007538  0
-74.497398  47.977150  -76.547958  0
-74.161850  44.940090  -78.762573  0
-68.683762  49.086853  -81.780777  0
-71.023300  45.359543  -81.217758  0
-73.420723  41.584839  -80.732971  0
-72.371460  38.002747  -82.538033  0
-71.149231  34.316505  -84.200958  0
-69.856384  30.632870  -85.661331  0
-54.415825  48.740326  -87.634094  0
-56.822994  45.233715  -87.753433  0
-59.143250  41.659737  -87.686646  0
-53.433922  37.346188  -88.395348  0
-57.542145  37.759720  -88.136330  0
-61.430214  38.021439  -87.492325  0
-63.741165  34.348038  -87.244476  0
-66.103210  30.666222  -87.007797  0
-68.507965  26.988037  -86.827293  0
-67.051102  23.358511  -87.651520  0
-65.428925  19.710112  -88.157425  0
-63.631332  16.030790  -88.417038  0
-56.968056  19.330536  -88.528748  0
-59.338432  15.839448  -88.519020  0
-61.697273  12.331903  -88.514481  0
-59.679932  8.630346  -88.523972  0
-57.620125  4.940727  -88.504341  0
-55.540993  1.280304  -88.492798  0
-51.292351  1.189657  -88.485138  0
-47.120964  1.101578  -88.448547  0
-43.000496  1.015522  -88.406784  0
-42.794739  7.926124  -88.441010  0
-40.877419  4.405949  -88.390793  0
-38.940613  0.935016  -88.404068  0
-34.985680  0.862083  -88.446312  0
-31.154497  0.792051  -88.494629  0
-27.426537  0.716645  -88.519882  0
-33.825790  20.848642  -88.565460  0
-32.152588  17.291195  -88.563118  0
-30.482534  13.809710  -88.550285  0
-24.504368  16.430126  -88.571335  0
-26.679958  13.442719  -88.565445  0
-28.813957  10.400337  -88.536530  0
-27.150145  7.063893  -88.529083  0
-25.482822  3.806671  -88.526077  0
-23.788097  0.630901  -88.527267  0
-20.251307  0.534030  -88.531021  0
-16.834139  0.426667  -88.535690  0
-13.551687  0.309608  -88.540024  0
-13.151928  5.935201  -88.536270  0
-11.791746  2.986151  -88.529785  0
-10.420877  0.179918  -88.541351  0
-7.460179  0.023505  -88.538696  0
-4.701739  -0.192262  -88.538719  0
-3.600485  -2.423297  -88.543350  0
-34.187386  -92.145874  -64.111801  0
-34.479416  -91.603119  -67.514801  0
-34.719070  -91.097488  -71.187431  0
-40.189667  -88.844070  -70.056686  0
-37.671165  -89.742790  -72.615829  0
-34.888741  -90.559158  -74.978348  0
-34.934029  -89.841393  -78.660957  0
-34.784058  -88.746567  -81.937866  0
-34.371719  -87.080872  -84.544174  0
-51.750107  -80.029633  -73.277710  0
-49.462280  -81.280190  -76.328598  0
-46.918343  -82.402664  -79.126907  0
-49.883575  -77.470612  -82.500435  0
-46.999344  -80.516342  -82.097229  0
-44.085548  -83.351540  -81.583145  0
-40.933121  -84.072655  -83.621613  0
-37.445686  -84.523468  -85.211327  0
-33.642281  -84.694992  -86.376556  0
-32.578156  -81.549728  -87.511810  0
-31.238754  -77.790642  -88.128204  0
-29.738729  -73.681595  -88.422203  0
-36.873833  -70.881233  -88.221336  0
-32.550354  -70.212173  -88.436195  0
-28.177885  -69.444412  -88.548553  0
-26.611725  -65.195755  -88.601135  0
-25.066296  -60.985519  -88.623169  0
-23.553070  -56.833488  -88.624802  0
-73.793121  -54.604000  -75.520615  0
-72.112106  -55.963799  -78.838074  0
-69.923195  -57.070732  -81.691414  0
-72.668282  -50.762997  -83.718506  0
-69.969040  -54.360516  -83.880684  0
-67.215759  -57.859436  -83.993912  0
-64.010880  -58.286373  -85.724411  0
-60.358513  -58.351669  -86.935287  0
-56.357857  -58.113373  -87.728241  0
-67.915909  -36.241226  -88.158569  0
-65.350357  -39.898041  -88.168091  0
-62.755936  -43.532032  -88.173080  0
-56.514038  -39.132824  -88.514328  0
-58.373573  -43.134247  -88.432884  0
-60.138741  -47.141464  -88.193054  0
-57.500092  -50.706894  -88.227203  0
-54.839378  -54.213547  -88.243881  0
-52.147644  -57.668282  -88.208572  0
-47.845200  -57.105247  -88.458862  0
-43.507980  -56.474930  -88.551895  0
-39.159683  -55.797550  -88.562668  0
-40.118828  -48.379005  -88.524323  0
-37.488720  -51.732323  -88.539444  0
-34.821915  -55.083008  -88.553055  0
-30.516056  -54.336914  -88.556816  0
-26.261505  -53.558548  -88.580292  0
-22.074371  -52.744080  -88.605637  0
-20.628544  -48.717892  -88.568466  0
-19.215345  -44.752678  -88.521706  0
-17.839457  -40.846977  -88.480598  0
-24.299393  -38.512321  -88.317154  0
-20.370085  -37.777351  -88.410904  0
-16.506264  -37.013191  -88.456100  0
-15.210731  -33.268631  -88.442520  0
-13.939638  -29.617435  -88.430374  0
-12.688715  -26.058065  -88.421646  0
-33.921448  -25.709099  -87.854691  0
-29.914673  -25.289528  -88.061142  0
-26.077082  -24.847086  -88.264725  0
-26.747990  -18.288197  -88.357971  0
-24.570009  -21.340946  -88.367821  0
-22.342045  -24.361353  -88.385818  0
-18.660645  -23.824348  -88.429367  0
-15.031574  -23.236389  -88.432198  0
-11.466019  -22.596207  -88.421661  0
-10.276930  -19.239534  -88.430687  0
-9.118567  -15.996933  -88.449989  0
-7.988095  -12.889547  -88.479797  0
-13.210938  -10.777353  -88.559067  0
-9.994179  -10.393145  -88.531067  0
-6.883569  -9.945757  -88.510475  0
-5.797794  -7.189690  -88.530304  0
-4.716878  -4.657048  -88.538849  0
-2.213751  -4.307908  -88.552719  0
70.014954  -58.158115  -62.710632  0
69.951401  -58.240204  -65.953690  0
69.921463  -58.247555  -69.407372  0
66.479431  -63.220650  -68.811020  0
68.083305  -60.729767  -70.988724  0
69.833694  -58.176224  -72.933121  0
69.541756  -57.981216  -76.322845  0
68.858330  -57.570747  -79.354584  0
67.620422  -56.814438  -81.920929  0
57.441696  -74.111191  -74.059036  0
59.100197  -71.463684  -76.729568  0
60.720406  -68.656403  -79.035019  0
56.377693  -70.885956  -83.188995  0
59.433510  -68.296341  -82.121841  0
62.237320  -65.691338  -80.881119  0
63.586899  -62.551804  -82.246765  0
64.745705  -59.197948  -83.234375  0
65.762085  -55.600990  -84.047394  0
63.350998  -53.931419  -85.764542  0
60.535431  -51.917999  -87.040726  0
57.434547  -49.672836  -87.856018  0
53.221233  -55.797180  -87.906906  0
53.656857  -51.518738  -88.117599  0
54.114426  -47.258255  -88.279572  0
50.645161  -44.731102  -88.446716  0
47.113785  -42.161518  -88.478958  0
43.585873  -39.602684  -88.441238  0
28.326790  -92.282867  -79.828789  0
30.257111  -90.428696  -82.760979  0
31.981819  -87.927856  -84.965111  0
24.374191  -88.193787  -86.748474  0
28.958961  -86.518219  -86.655594  0
33.439079  -84.722458  -86.492027  0
34.608383  -80.892029  -87.461861  0
35.520081  -76.625809  -88.016815  0
36.239941  -72.133377  -88.299210  0
10.713659  -76.904373  -88.571411  0
15.186384  -75.534645  -88.566315  0
19.619534  -74.081070  -88.563393  0
17.047365  -66.332077  -88.590271  0
20.484924  -69.448318  -88.595360  0
24.005941  -72.552910  -88.560165  0
28.339542  -70.957565  -88.544121  0
32.618202  -69.296738  -88.501503  0
36.840187  -67.571487  -88.426956  0
37.377106  -63.027649  -88.480156  0
37.881805  -58.539978  -88.504333  0
38.364613  -54.119991  -88.518547  0
30.857498  -52.979061  -88.548920  0
34.850334  -51.392471  -88.540154  0
38.826088  -49.768440  -88.523178  0
39.266201  -45.483204  -88.506836  0
39.686226  -41.256538  -88.455284  0
40.084435  -37.067398  -88.365906  0
36.610756  -34.541397  -88.297592  0
33.184563  -32.023216  -88.291634  0
29.848095  -29.540783  -88.360687  0
25.756153  -35.070137  -88.448318  0
26.209217  -31.067648  -88.448929  0
26.625381  -27.121691  -88.455185  0
23.502754  -24.765884  -88.515457  0
20.452530  -22.456329  -88.525024  0
17.461838  -20.184605  -88.510742  0
10.789742  -40.543571  -88.454178  0
11.558916  -36.592537  -88.451782  0
12.279558  -32.720238  -88.462967  0
5.803591  -31.337032  -88.473595  0
9.377572  -30.171436  -88.472137  0
12.945099  -28.930908  -88.477501  0
13.548605  -25.215609  -88.485916  0
14.083585  -21.558399  -88.491806  0
14.542345  -17.958235  -88.506119  0
11.717111  -15.788189  -88.522766  0
9.003338  -13.682245  -88.552490  0
6.412545  -11.649423  -88.581436  0
2.811451  -15.974712  -88.516373  0
3.442376  -12.767747  -88.560394  0
3.960830  -9.698328  -88.597046  0
1.672670  -7.830251  -88.592438  0
-0.412905  -6.040409  -88.572624  0
0.011558  -3.591604  -88.574707  0
75.118271  50.980568  -62.337326  0
75.250008  50.700279  -65.215378  0
75.037781  50.308418  -67.899445  0
78.192444  45.332714  -67.009140  0
76.406372  47.480904  -68.743362  0
74.281326  49.648987  -70.284470  0
72.830032  48.599716  -72.578384  0
70.765869  47.166588  -75.123245  0
68.459679  45.504021  -78.053741  0
82.679024  31.207054  -69.938095  0
80.802979  33.259132  -71.512512  0
78.228256  35.267883  -72.963837  0
76.784897  28.920530  -76.330055  0
75.958939  33.126030  -75.404434  0
75.169083  37.284714  -74.602402  0
71.987564  39.359566  -76.581802  0
68.991791  41.523071  -78.834442  0
66.287552  43.766876  -81.125679  0
64.324463  41.985771  -83.869919  0
62.355324  40.104092  -85.923370  0
60.081352  38.059052  -87.212738  0
63.631065  31.730824  -86.776367  0
60.619217  33.852539  -87.490707  0
57.328075  35.825851  -87.888519  0
54.142975  33.441853  -88.181564  0
50.712402  30.987679  -88.299026  0
47.212677  28.533903  -88.361816  0
86.101173  -1.802047  -75.738724  0
85.662064  0.392221  -78.730118  0
84.475555  2.454772  -81.186066  0
83.673721  -3.904955  -84.486877  0
83.177826  0.410681  -83.956085  0
82.445267  4.475292  -83.151108  0
79.688400  6.552972  -84.705772  0
76.487488  8.718199  -85.909164  0
73.112061  10.931467  -86.809814  0
72.109383  -13.049523  -88.355530  0
72.029236  -8.459394  -88.342163  0
71.832436  -3.929376  -88.293274  0
64.048309  -4.096468  -88.564392  0
67.851761  -1.805417  -88.447594  0
71.507736  0.505152  -88.195389  0
71.036789  4.815143  -88.028076  0
70.417313  9.006773  -87.780212  0
69.684006  13.121889  -87.460251  0
66.199173  15.227730  -87.906021  0
62.620781  17.224319  -88.179520  0
58.935158  19.124300  -88.315918  0
55.716805  12.602867  -88.400459  0
55.454002  16.783585  -88.380150  0
55.161449  20.953159  -88.368179  0
51.344032  22.726257  -88.389984  0
47.529137  24.446358  -88.404709  0
43.737564  26.110497  -88.404083  0
40.310654  23.718849  -88.426666  0
36.933308  21.358936  -88.436249  0
33.614479  19.036060  -88.441376  0
37.520851  13.459055  -88.360405  0
33.919399  15.135494  -88.403748  0
30.364050  16.751280  -88.443954  0
27.181780  14.503462  -88.448135  0
24.064583  12.300606  -88.463142  0
21.015217  10.157593  -88.492363  0
38.132263  -2.377964  -88.338348  0
34.622261  -0.443796  -88.324646  0
31.180489  1.429368  -88.361969  0
27.959263  -4.254874  -88.453964  0
27.918278  -0.518850  -88.436264  0
27.816648  3.222998  -88.423782  0
24.518185  4.931149  -88.477959  0
21.262825  6.553838  -88.512054  0
18.040842  8.085400  -88.528709  0
15.150385  6.091401  -88.560516  0
12.350283  4.182353  -88.577530  0
9.641634  2.360529  -88.578201  0
12.608591  -2.400712  -88.565063  0
9.783023  -0.814690  -88.570328  0
7.029313  0.629445  -88.573761  0
4.536195  -0.985607  -88.576736  0
2.196087  -2.425501  -88.582504  0
0 2564 2562 0
0 2562 2565 0
0 2565 2567 0
0 2567 2569 0
0 2569 2564 0
3 2574 2572 0
3 2572 2575 0
3 2575 2577 0
4 2581 2579 0
4 2579 2582 0
5 2586 2584 0
5 2584 2587 0
1 2591 2589 0
1 2589 2592 0
2 2596 2594 0
8 2599 2597 0
9 2602 2600 0
10 2605 2603 0
6 2608 2606 0
7 2611 2609 0
12 2614 2612 0
14 2617 2615 0
14 2619 2617 0
15 2622 2620 0
12 2625 2623 0
12 2612 2625 0
17 2629 2627 0
15 2632 2630 0
15 2620 2632 0
19 2636 2634 0
17 2639 2637 0
17 2627 2639 0
14 2642 2619 0
19 2645 2643 0
19 2634 2645 0
22 2649 2647 0
21 2652 2650 0
21 2654 2652 0
24 2657 2655 0
22 2660 2658 0
22 2647 2660 0
13 2664 2662 0
24 2667 2665 0
24 2655 2667 0
27 2671 2669 0
26 2674 2672 0
26 2676 2674 0
16 2679 2677 0
27 2682 2680 0
27 2669 2682 0
30 2686 2684 0
29 2689 2687 0
29 2691 2689 0
18 2694 2692 0
30 2697 2695 0
30 2684 2697 0
33 2701 2699 0
32 2704 2702 0
32 2706 2704 0
20 2709 2707 0
33 2712 2710 0
33 2699 2712 0
23 2716 2714 0
35 2719 2717 0
35 2721 2719 0
25 2724 2722 0
38 2727 2725 0
38 2729 2727 0
28 2732 2730 0
37 2735 2733 0
37 2737 2735 0
31 2740 2738 0
39 2743 2741 0
39 2745 2743 0
34 2748 2746 0
40 2751 2749 0
40 2753 2751 0
36 2756 2754 0
41 2759 2757 0
41 2761 2759 0
42 2764 2762 0
44 2767 2765 0
44 2769 2767 0
45 2772 2770 0
42 2775 2773 0
42 2762 2775 0
47 2779 2777 0
45 2782 2780 0
45 2770 2782 0
49 2786 2784 0
47 2789 2787 0
47 2777 2789 0
44 2792 2769 0
49 2795 2793 0
49 2784 2795 0
52 2799 2797 0
54 2802 2800 0
54 2804 2802 0
55 2807 2805 0
52 2810 2808 0
52 2797 2810 0
57 2814 2812 0
55 2817 2815 0
55 2805 2817 0
59 2821 2819 0
61 2824 2822 0
61 2826 2824 0
62 2829 2827 0
59 2832 2830 0
59 2819 2832 0
64 2836 2834 0
66 2839 2837 0
66 2841 2839 0
67 2844 2842 0
64 2847 2845 0
64 2834 2847 0
69 2851 2849 0
71 2854 2852 0
71 2856 2854 0
72 2859 2857 0
69 2862 2860 0
69 2849 2862 0
74 2866 2864 0
76 2869 2867 0
76 2871 2869 0
77 2874 2872 0
79 2877 2875 0
79 2879 2877 0
80 2882 2880 0
82 2885 2883 0
82 2887 2885 0
83 2890 2888 0
85 2893 2891 0
85 2895 2893 0
86 2898 2896 0
88 2901 2899 0
88 2903 2901 0
89 2906 2904 0
91 2909 2907 0
91 2911 2909 0
92 2914 2912 0
94 2917 2915 0
94 2919 2917 0
43 2922 2920 0
95 2925 2923 0
95 2927 2925 0
95 2929 2927 0
96 2932 2930 0
96 2934 2932 0
97 2937 2935 0
99 2940 2938 0
99 2942 2940 0
46 2945 2943 0
100 2948 2946 0
100 2950 2948 0
100 2952 2950 0
92 2955 2953 0
92 2912 2955 0
101 2959 2957 0
103 2962 2960 0
103 2964 2962 0
48 2967 2965 0
104 2970 2968 0
104 2972 2970 0
104 2974 2972 0
97 2977 2975 0
97 2935 2977 0
105 2981 2979 0
107 2984 2982 0
107 2986 2984 0
50 2989 2987 0
108 2992 2990 0
108 2994 2992 0
108 2996 2994 0
101 2999 2997 0
101 2957 2999 0
96 3002 2934 0
109 3005 3003 0
109 3007 3005 0
51 3010 3008 0
110 3013 3011 0
110 3015 3013 0
110 3017 3015 0
105 3020 3018 0
105 2979 3020 0
112 3024 3022 0
114 3027 3025 0
114 3029 3027 0
53 3032 3030 0
115 3035 3033 0
115 3037 3035 0
115 3039 3037 0
111 3042 3040 0
111 3044 3042 0
116 3047 3045 0
118 3050 3048 0
118 3052 3050 0
56 3055 3053 0
119 3058 3056 0
119 3060 3058 0
119 3062 3060 0
112 3065 3063 0
112 3022 3065 0
93 3069 3067 0
120 3072 3070 0
120 3074 3072 0
58 3077 3075 0
121 3080 3078 0
121 3082 3080 0
121 3084 3082 0
116 3087 3085 0
116 3045 3087 0
123 3091 3089 0
125 3094 3092 0
125 3096 3094 0
60 3099 3097 0
126 3102 3100 0
126 3104 3102 0
126 3106 3104 0
122 3109 3107 0
122 3111 3109 0
98 3114 3112 0
127 3117 3115 0
127 3119 3117 0
63 3122 3120 0
128 3125 3123 0
128 3127 3125 0
128 3129 3127 0
123 3132 3130 0
123 3089 3132 0
130 3136 3134 0
132 3139 3137 0
132 3141 3139 0
65 3144 3142 0
133 3147 3145 0
133 3149 3147 0
133 3151 3149 0
129 3154 3152 0
129 3156 3154 0
102 3159 3157 0
134 3162 3160 0
134 3164 3162 0
68 3167 3165 0
135 3170 3168 0
135 3172 3170 0
135 3174 3172 0
130 3177 3175 0
130 3134 3177 0
137 3181 3179 0
139 3184 3182 0
139 3186 3184 0
70 3189 3187 0
140 3192 3190 0
140 3194 3192 0
140 3196 3194 0
136 3199 3197 0
136 3201 3199 0
106 3204 3202 0
141 3207 3205 0
141 3209 3207 0
73 3212 3210 0
142 3215 3213 0
142 3217 3215 0
142 3219 3217 0
137 3222 3220 0
137 3179 3222 0
113 3226 3224 0
145 3229 3227 0
145 3231 3229 0
75 3234 3232 0
146 3237 3235 0
146 3239 3237 0
146 3241 3239 0
143 3244 3242 0
143 3246 3244 0
117 3249 3247 0
147 3252 3250 0
147 3254 3252 0
78 3257 3255 0
148 3260 3258 0
148 3262 3260 0
148 3264 3262 0
150 3267 3265 0
150 3269 3267 0
124 3272 3270 0
151 3275 3273 0
151 3277 3275 0
81 3280 3278 0
152 3283 3281 0
152 3285 3283 0
152 3287 3285 0
149 3290 3288 0
149 3292 3290 0
131 3295 3293 0
154 3298 3296 0
154 3300 3298 0
84 3303 3301 0
155 3306 3304 0
155 3308 3306 0
155 3310 3308 0
153 3313 3311 0
153 3315 3313 0
138 3318 3316 0
157 3321 3319 0
157 3323 3321 0
87 3326 3324 0
158 3329 3327 0
158 3331 3329 0
158 3333 3331 0
156 3336 3334 0
156 3338 3336 0
144 3341 3339 0
160 3344 3342 0
160 3346 3344 0
90 3349 3347 0
161 3352 3350 0
161 3354 3352 0
161 3356 3354 0
159 3359 3357 0
159 3361 3359 0
162 3364 3362 0
164 3367 3365 0
164 3369 3367 0
165 3372 3370 0
162 3375 3373 0
162 3362 3375 0
167 3379 3377 0
165 3382 3380 0
165 3370 3382 0
169 3386 3384 0
167 3389 3387 0
167 3377 3389 0
164 3392 3369 0
169 3395 3393 0
169 3384 3395 0
172 3399 3397 0
174 3402 3400 0
174 3404 3402 0
175 3407 3405 0
172 3410 3408 0
172 3397 3410 0
177 3414 3412 0
175 3417 3415 0
175 3405 3417 0
179 3421 3419 0
181 3424 3422 0
181 3426 3424 0
182 3429 3427 0
179 3432 3430 0
179 3419 3432 0
184 3436 3434 0
186 3439 3437 0
186 3441 3439 0
187 3444 3442 0
184 3447 3445 0
184 3434 3447 0
189 3451 3449 0
191 3454 3452 0
191 3456 3454 0
192 3459 3457 0
189 3462 3460 0
189 3449 3462 0
194 3466 3464 0
196 3469 3467 0
196 3471 3469 0
197 3474 3472 0
199 3477 3475 0
199 3479 3477 0
200 3482 3480 0
202 3485 3483 0
202 3487 3485 0
203 3490 3488 0
205 3493 3491 0
205 3495 3493 0
206 3498 3496 0
208 3501 3499 0
208 3503 3501 0
209 3506 3504 0
211 3509 3507 0
211 3511 3509 0
212 3514 3512 0
214 3517 3515 0
214 3519 3517 0
215 3522 3520 0
217 3525 3523 0
217 3527 3525 0
217 3529 3527 0
219 3532 3530 0
219 3534 3532 0
220 3537 3535 0
222 3540 3538 0
222 3542 3540 0
223 3545 3543 0
225 3548 3546 0
225 3550 3548 0
225 3552 3550 0
212 3555 3553 0
212 3512 3555 0
227 3559 3557 0
229 3562 3560 0
229 3564 3562 0
230 3567 3565 0
232 3570 3568 0
232 3572 3570 0
232 3574 3572 0
220 3577 3575 0
220 3535 3577 0
234 3581 3579 0
236 3584 3582 0
236 3586 3584 0
237 3589 3587 0
239 3592 3590 0
239 3594 3592 0
239 3596 3594 0
227 3599 3597 0
227 3557 3599 0
219 3602 3534 0
242 3605 3603 0
242 3607 3605 0
243 3610 3608 0
245 3613 3611 0
245 3615 3613 0
245 3617 3615 0
234 3620 3618 0
234 3579 3620 0
247 3624 3622 0
249 3627 3625 0
249 3629 3627 0
250 3632 3630 0
252 3635 3633 0
252 3637 3635 0
252 3639 3637 0
254 3642 3640 0
254 3644 3642 0
255 3647 3645 0
257 3650 3648 0
257 3652 3650 0
258 3655 3653 0
260 3658 3656 0
260 3660 3658 0
260 3662 3660 0
247 3665 3663 0
247 3622 3665 0
262 3669 3667 0
264 3672 3670 0
264 3674 3672 0
265 3677 3675 0
267 3680 3678 0
267 3682 3680 0
267 3684 3682 0
255 3687 3685 0
255 3645 3687 0
269 3691 3689 0
271 3694 3692 0
271 3696 3694 0
272 3699 3697 0
274 3702 3700 0
274 3704 3702 0
274 3706 3704 0
276 3709 3707 0
276 3711 3709 0
277 3714 3712 0
279 3717 3715 0
279 3719 3717 0
280 3722 3720 0
282 3725 3723 0
282 3727 3725 0
282 3729 3727 0
269 3732 3730 0
269 3689 3732 0
284 3736 3734 0
286 3739 3737 0
286 3741 3739 0
287 3744 3742 0
289 3747 3745 0
289 3749 3747 0
289 3751 3749 0
291 3754 3752 0
291 3756 3754 0
292 3759 3757 0
294 3762 3760 0
294 3764 3762 0
295 3767 3765 0
297 3770 3768 0
297 3772 3770 0
297 3774 3772 0
284 3777 3775 0
284 3734 3777 0
299 3781 3779 0
301 3784 3782 0
301 3786 3784 0
302 3789 3787 0
304 3792 3790 0
304 3794 3792 0
304 3796 3794 0
306 3799 3797 0
306 3801 3799 0
307 3804 3802 0
309 3807 3805 0
309 3809 3807 0
310 3812 3810 0
312 3815 3813 0
312 3817 3815 0
312 3819 3817 0
299 3822 3820 0
299 3779 3822 0
314 3826 3824 0
316 3829 3827 0
316 3831 3829 0
317 3834 3832 0
319 3837 3835 0
319 3839 3837 0
319 3841 3839 0
321 3844 3842 0
321 3846 3844 0
322 3849 3847 0
324 3852 3850 0
324 3854 3852 0
325 3857 3855 0
327 3860 3858 0
327 3862 3860 0
327 3864 3862 0
329 3867 3865 0
329 3869 3867 0
330 3872 3870 0
332 3875 3873 0
332 3877 3875 0
333 3880 3878 0
335 3883 3881 0
335 3885 3883 0
335 3887 3885 0
337 3890 3888 0
337 3892 3890 0
338 3895 3893 0
340 3898 3896 0
340 3900 3898 0
341 3903 3901 0
343 3906 3904 0
343 3908 3906 0
343 3910 3908 0
345 3913 3911 0
345 3915 3913 0
346 3918 3916 0
348 3921 3919 0
348 3923 3921 0
349 3926 3924 0
351 3929 3927 0
351 3931 3929 0
351 3933 3931 0
353 3936 3934 0
353 3938 3936 0
354 3941 3939 0
356 3944 3942 0
356 3946 3944 0
357 3949 3947 0
359 3952 3950 0
359 3954 3952 0
359 3956 3954 0
361 3959 3957 0
361 3961 3959 0
362 3964 3962 0
364 3967 3965 0
364 3969 3967 0
163 3972 3970 0
365 3975 3973 0
365 3977 3975 0
365 3979 3977 0
366 3982 3980 0
366 3984 3982 0
367 3987 3985 0
369 3990 3988 0
369 3992 3990 0
166 3995 3993 0
370 3998 3996 0
370 4000 3998 0
370 4002 4000 0
362 4005 4003 0
362 3962 4005 0
371 4009 4007 0
373 4012 4010 0
373 4014 4012 0
168 4017 4015 0
374 4020 4018 0
374 4022 4020 0
374 4024 4022 0
367 4027 4025 0
367 3985 4027 0
375 4031 4029 0
377 4034 4032 0
377 4036 4034 0
170 4039 4037 0
378 4042 4040 0
378 4044 4042 0
378 4046 4044 0
371 4049 4047 0
371 4007 4049 0
366 4052 3984 0
380 4055 4053 0
380 4057 4055 0
171 4060 4058 0
381 4063 4061 0
381 4065 4063 0
381 4067 4065 0
375 4070 4068 0
375 4029 4070 0
382 4074 4072 0
384 4077 4075 0
384 4079 4077 0
173 4082 4080 0
385 4085 4083 0
385 4087 4085 0
385 4089 4087 0
386 4092 4090 0
386 4094 4092 0
387 4097 4095 0
389 4100 4098 0
389 4102 4100 0
176 4105 4103 0
390 4108 4106 0
390 4110 4108 0
390 4112 4110 0
382 4115 4113 0
382 4072 4115 0
391 4119 4117 0
393 4122 4120 0
393 4124 4122 0
178 4127 4125 0
394 4130 4128 0
394 4132 4130 0
394 4134 4132 0
387 4137 4135 0
387 4095 4137 0
395 4141 4139 0
397 4144 4142 0
397 4146 4144 0
180 4149 4147 0
398 4152 4150 0
398 4154 4152 0
398 4156 4154 0
399 4159 4157 0
399 4161 4159 0
400 4164 4162 0
402 4167 4165 0
402 4169 4167 0
183 4172 4170 0
403 4175 4173 0
403 4177 4175 0
403 4179 4177 0
395 4182 4180 0
395 4139 4182 0
404 4186 4184 0
406 4189 4187 0
406 4191 4189 0
185 4194 4192 0
407 4197 4195 0
407 4199 4197 0
407 4201 4199 0
408 4204 4202 0
408 4206 4204 0
409 4209 4207 0
411 4212 4210 0
411 4214 4212 0
188 4217 4215 0
412 4220 4218 0
412 4222 4220 0
412 4224 4222 0
404 4227 4225 0
404 4184 4227 0
413 4231 4229 0
415 4234 4232 0
415 4236 4234 0
190 4239 4237 0
416 4242 4240 0
416 4244 4242 0
416 4246 4244 0
417 4249 4247 0
417 4251 4249 0
418 4254 4252 0
420 4257 4255 0
420 4259 4257 0
193 4262 4260 0
421 4265 4263 0
421 4267 4265 0
421 4269 4267 0
413 4272 4270 0
413 4229 4272 0
422 4276 4274 0
424 4279 4277 0
424 4281 4279 0
195 4284 4282 0
425 4287 4285 0
425 4289 4287 0
425 4291 4289 0
426 4294 4292 0
426 4296 4294 0
427 4299 4297 0
429 4302 4300 0
429 4304 4302 0
198 4307 4305 0
430 4310 4308 0
430 4312 4310 0
430 4314 4312 0
431 4317 4315 0
431 4319 4317 0
432 4322 4320 0
434 4325 4323 0
434 4327 4325 0
201 4330 4328 0
435 4333 4331 0
435 4335 4333 0
435 4337 4335 0
436 4340 4338 0
436 4342 4340 0
437 4345 4343 0
439 4348 4346 0
439 4350 4348 0
204 4353 4351 0
440 4356 4354 0
440 4358 4356 0
440 4360 4358 0
441 4363 4361 0
441 4365 4363 0
442 4368 4366 0
444 4371 4369 0
444 4373 4371 0
207 4376 4374 0
445 4379 4377 0
445 4381 4379 0
445 4383 4381 0
446 4386 4384 0
446 4388 4386 0
447 4391 4389 0
449 4394 4392 0
449 4396 4394 0
210 4399 4397 0
450 4402 4400 0
450 4404 4402 0
450 4406 4404 0
451 4409 4407 0
451 4411 4409 0
452 4414 4412 0
454 4417 4415 0
454 4419 4417 0
213 4422 4420 0
455 4425 4423 0
455 4427 4425 0
455 4429 4427 0
456 4432 4430 0
456 4434 4432 0
363 4437 4435 0
457 4440 4438 0
457 4442 4440 0
216 4445 4443 0
458 4448 4446 0
458 4450 4448 0
458 4452 4450 0
459 4455 4453 0
459 4457 4455 0
459 4459 4457 0
460 4462 4460 0
460 4464 4462 0
218 4467 4465 0
461 4470 4468 0
461 4472 4470 0
461 4474 4472 0
462 4477 4475 0
462 4479 4477 0
463 4482 4480 0
465 4485 4483 0
465 4487 4485 0
221 4490 4488 0
466 4493 4491 0
466 4495 4493 0
466 4497 4495 0
467 4500 4498 0
467 4502 4500 0
368 4505 4503 0
468 4508 4506 0
468 4510 4508 0
224 4513 4511 0
469 4516 4514 0
469 4518 4516 0
469 4520 4518 0
470 4523 4521 0
470 4525 4523 0
470 4527 4525 0
471 4530 4528 0
471 4532 4530 0
226 4535 4533 0
472 4538 4536 0
472 4540 4538 0
472 4542 4540 0
452 4545 4543 0
452 4412 4545 0
473 4549 4547 0
475 4552 4550 0
475 4554 4552 0
228 4557 4555 0
476 4560 4558 0
476 4562 4560 0
476 4564 4562 0
477 4567 4565 0
477 4569 4567 0
372 4572 4570 0
478 4575 4573 0
478 4577 4575 0
231 4580 4578 0
479 4583 4581 0
479 4585 4583 0
479 4587 4585 0
480 4590 4588 0
480 4592 4590 0
480 4594 4592 0
481 4597 4595 0
481 4599 4597 0
233 4602 4600 0
482 4605 4603 0
482 4607 4605 0
482 4609 4607 0
463 4612 4610 0
463 4480 4612 0
483 4616 4614 0
485 4619 4617 0
485 4621 4619 0
235 4624 4622 0
486 4627 4625 0
486 4629 4627 0
486 4631 4629 0
487 4634 4632 0
487 4636 4634 0
376 4639 4637 0
488 4642 4640 0
488 4644 4642 0
238 4647 4645 0
489 4650 4648 0
489 4652 4650 0
489 4654 4652 0
490 4657 4655 0
490 4659 4657 0
490 4661 4659 0
491 4664 4662 0
491 4666 4664 0
240 4669 4667 0
492 4672 4670 0
492 4674 4672 0
492 4676 4674 0
473 4679 4677 0
473 4547 4679 0
462 4682 4479 0
493 4685 4683 0
493 4687 4685 0
241 4690 4688 0
494 4693 4691 0
494 4695 4693 0
494 4697 4695 0
495 4700 4698 0
495 4702 4700 0
379 4705 4703 0
496 4708 4706 0
496 4710 4708 0
244 4713 4711 0
497 4716 4714 0
497 4718 4716 0
497 4720 4718 0
498 4723 4721 0
498 4725 4723 0
498 4727 4725 0
499 4730 4728 0
499 4732 4730 0
246 4735 4733 0
500 4738 4736 0
500 4740 4738 0
500 4742 4740 0
483 4745 4743 0
483 4614 4745 0
502 4749 4747 0
504 4752 4750 0
504 4754 4752 0
248 4757 4755 0
505 4760 4758 0
505 4762 4760 0
505 4764 4762 0
506 4767 4765 0
506 4769 4767 0
383 4772 4770 0
507 4775 4773 0
507 4777 4775 0
251 4780 4778 0
508 4783 4781 0
508 4785 4783 0
508 4787 4785 0
509 4790 4788 0
509 4792 4790 0
509 4794 4792 0
510 4797 4795 0
510 4799 4797 0
253 4802 4800 0
511 4805 4803 0
511 4807 4805 0
511 4809 4807 0
501 4812 4810 0
501 4814 4812 0
512 4817 4815 0
514 4820 4818 0
514 4822 4820 0
256 4825 4823 0
515 4828 4826 0
515 4830 4828 0
515 4832 4830 0
516 4835 4833 0
516 4837 4835 0
388 4840 4838 0
517 4843 4841 0
517 4845 4843 0
259 4848 4846 0
518 4851 4849 0
518 4853 4851 0
518 4855 4853 0
519 4858 4856 0
519 4860 4858 0
519 4862 4860 0
520 4865 4863 0
520 4867 4865 0
261 4870 4868 0
521 4873 4871 0
521 4875 4873 0
521 4877 4875 0
502 4880 4878 0
502 4747 4880 0
453 4884 4882 0
522 4887 4885 0
522 4889 4887 0
263 4892 4890 0
523 4895 4893 0
523 4897 4895 0
523 4899 4897 0
524 4902 4900 0
524 4904 4902 0
392 4907 4905 0
525 4910 4908 0
525 4912 4910 0
266 4915 4913 0
526 4918 4916 0
526 4920 4918 0
526 4922 4920 0
527 4925 4923 0
527 4927 4925 0
527 4929 4927 0
528 4932 4930 0
528 4934 4932 0
268 4937 4935 0
529 4940 4938 0
529 4942 4940 0
529 4944 4942 0
512 4947 4945 0
512 4815 4947 0
531 4951 4949 0
533 4954 4952 0
533 4956 4954 0
270 4959 4957 0
534 4962 4960 0
534 4964 4962 0
534 4966 4964 0
535 4969 4967 0
535 4971 4969 0
396 4974 4972 0
536 4977 4975 0
536 4979 4977 0
273 4982 4980 0
537 4985 4983 0
537 4987 4985 0
537 4989 4987 0
538 4992 4990 0
538 4994 4992 0
538 4996 4994 0
539 4999 4997 0
539 5001 4999 0
275 5004 5002 0
540 5007 5005 0
540 5009 5007 0
540 5011 5009 0
530 5014 5012 0
530 5016 5014 0
464 5019 5017 0
541 5022 5020 0
541 5024 5022 0
278 5027 5025 0
542 5030 5028 0
542 5032 5030 0
542 5034 5032 0
543 5037 5035 0
543 5039 5037 0
401 5042 5040 0
544 5045 5043 0
544 5047 5045 0
281 5050 5048 0
545 5053 5051 0
545 5055 5053 0
545 5057 5055 0
546 5060 5058 0
546 5062 5060 0
546 5064 5062 0
547 5067 5065 0
547 5069 5067 0
283 5072 5070 0
548 5075 5073 0
548 5077 5075 0
548 5079 5077 0
531 5082 5080 0
531 4949 5082 0
550 5086 5084 0
552 5089 5087 0
552 5091 5089 0
285 5094 5092 0
553 5097 5095 0
553 5099 5097 0
553 5101 5099 0
554 5104 5102 0
554 5106 5104 0
405 5109 5107 0
555 5112 5110 0
555 5114 5112 0
288 5117 5115 0
556 5120 5118 0
556 5122 5120 0
556 5124 5122 0
557 5127 5125 0
557 5129 5127 0
557 5131 5129 0
558 5134 5132 0
558 5136 5134 0
290 5139 5137 0
559 5142 5140 0
559 5144 5142 0
559 5146 5144 0
549 5149 5147 0
549 5151 5149 0
474 5154 5152 0
560 5157 5155 0
560 5159 5157 0
293 5162 5160 0
561 5165 5163 0
561 5167 5165 0
561 5169 5167 0
562 5172 5170 0
562 5174 5172 0
410 5177 5175 0
563 5180 5178 0
563 5182 5180 0
296 5185 5183 0
564 5188 5186 0
564 5190 5188 0
564 5192 5190 0
565 5195 5193 0
565 5197 5195 0
565 5199 5197 0
566 5202 5200 0
566 5204 5202 0
298 5207 5205 0
567 5210 5208 0
567 5212 5210 0
567 5214 5212 0
550 5217 5215 0
550 5084 5217 0
569 5221 5219 0
571 5224 5222 0
571 5226 5224 0
300 5229 5227 0
572 5232 5230 0
572 5234 5232 0
572 5236 5234 0
573 5239 5237 0
573 5241 5239 0
414 5244 5242 0
574 5247 5245 0
574 5249 5247 0
303 5252 5250 0
575 5255 5253 0
575 5257 5255 0
575 5259 5257 0
576 5262 5260 0
576 5264 5262 0
576 5266 5264 0
577 5269 5267 0
577 5271 5269 0
305 5274 5272 0
578 5277 5275 0
578 5279 5277 0
578 5281 5279 0
568 5284 5282 0
568 5286 5284 0
484 5289 5287 0
579 5292 5290 0
579 5294 5292 0
308 5297 5295 0
580 5300 5298 0
580 5302 5300 0
580 5304 5302 0
581 5307 5305 0
581 5309 5307 0
419 5312 5310 0
582 5315 5313 0
582 5317 5315 0
311 5320 5318 0
583 5323 5321 0
583 5325 5323 0
583 5327 5325 0
584 5330 5328 0
584 5332 5330 0
584 5334 5332 0
585 5337 5335 0
585 5339 5337 0
313 5342 5340 0
586 5345 5343 0
586 5347 5345 0
586 5349 5347 0
569 5352 5350 0
569 5219 5352 0
503 5356 5354 0
589 5359 5357 0
589 5361 5359 0
315 5364 5362 0
590 5367 5365 0
590 5369 5367 0
590 5371 5369 0
591 5374 5372 0
591 5376 5374 0
423 5379 5377 0
592 5382 5380 0
592 5384 5382 0
318 5387 5385 0
593 5390 5388 0
593 5392 5390 0
593 5394 5392 0
594 5397 5395 0
594 5399 5397 0
594 5401 5399 0
595 5404 5402 0
595 5406 5404 0
320 5409 5407 0
596 5412 5410 0
596 5414 5412 0
596 5416 5414 0
587 5419 5417 0
587 5421 5419 0
513 5424 5422 0
597 5427 5425 0
597 5429 5427 0
323 5432 5430 0
598 5435 5433 0
598 5437 5435 0
598 5439 5437 0
599 5442 5440 0
599 5444 5442 0
428 5447 5445 0
600 5450 5448 0
600 5452 5450 0
326 5455 5453 0
601 5458 5456 0
601 5460 5458 0
601 5462 5460 0
602 5465 5463 0
602 5467 5465 0
602 5469 5467 0
603 5472 5470 0
603 5474 5472 0
328 5477 5475 0
604 5480 5478 0
604 5482 5480 0
604 5484 5482 0
606 5487 5485 0
606 5489 5487 0
532 5492 5490 0
607 5495 5493 0
607 5497 5495 0
331 5500 5498 0
608 5503 5501 0
608 5505 5503 0
608 5507 5505 0
609 5510 5508 0
609 5512 5510 0
433 5515 5513 0
610 5518 5516 0
610 5520 5518 0
334 5523 5521 0
611 5526 5524 0
611 5528 5526 0
611 5530 5528 0
612 5533 5531 0
612 5535 5533 0
612 5537 5535 0
613 5540 5538 0
613 5542 5540 0
336 5545 5543 0
614 5548 5546 0
614 5550 5548 0
614 5552 5550 0
605 5555 5553 0
605 5557 5555 0
551 5560 5558 0
616 5563 5561 0
616 5565 5563 0
339 5568 5566 0
617 5571 5569 0
617 5573 5571 0
617 5575 5573 0
618 5578 5576 0
618 5580 5578 0
438 5583 5581 0
619 5586 5584 0
619 5588 5586 0
342 5591 5589 0
620 5594 5592 0
620 5596 5594 0
620 5598 5596 0
621 5601 5599 0
621 5603 5601 0
621 5605 5603 0
622 5608 5606 0
622 5610 5608 0
344 5613 5611 0
623 5616 5614 0
623 5618 5616 0
623 5620 5618 0
615 5623 5621 0
615 5625 5623 0
570 5628 5626 0
625 5631 5629 0
625 5633 5631 0
347 5636 5634 0
626 5639 5637 0
626 5641 5639 0
626 5643 5641 0
627 5646 5644 0
627 5648 5646 0
443 5651 5649 0
628 5654 5652 0
628 5656 5654 0
350 5659 5657 0
629 5662 5660 0
629 5664 5662 0
629 5666 5664 0
630 5669 5667 0
630 5671 5669 0
630 5673 5671 0
631 5676 5674 0
631 5678 5676 0
352 5681 5679 0
632 5684 5682 0
632 5686 5684 0
632 5688 5686 0
624 5691 5689 0
624 5693 5691 0
588 5696 5694 0
634 5699 5697 0
634 5701 5699 0
355 5704 5702 0
635 5707 5705 0
635 5709 5707 0
635 5711 5709 0
636 5714 5712 0
636 5716 5714 0
448 5719 5717 0
637 5722 5720 0
637 5724 5722 0
358 5727 5725 0
638 5730 5728 0
638 5732 5730 0
638 5734 5732 0
639 5737 5735 0
639 5739 5737 0
639 5741 5739 0
640 5744 5742 0
640 5746 5744 0
360 5749 5747 0
641 5752 5750 0
641 5754 5752 0
641 5756 5754 0
633 5759 5757 0
633 5761 5759 0
642 5764 5762 0
644 5765 2563 0
644 5766 5765 0
645 5769 5767 0
642 5770 2566 0
642 5762 5770 0
647 5773 5771 0
645 5774 2568 0
645 5767 5774 0
649 5777 5775 0
647 5778 2570 0
647 5771 5778 0
644 5780 5766 0
649 5781 2571 0
649 5775 5781 0
652 5784 5782 0
654 5785 2573 0
654 5786 5785 0
655 5789 5787 0
652 5790 2576 0
652 5782 5790 0
657 5793 5791 0
655 5794 2578 0
655 5787 5794 0
659 5797 5795 0
661 5798 2580 0
661 5799 5798 0
662 5802 5800 0
659 5803 2583 0
659 5795 5803 0
664 5806 5804 0
666 5807 2585 0
666 5808 5807 0
667 5811 5809 0
664 5812 2588 0
664 5804 5812 0
669 5815 5813 0
671 5816 2590 0
671 5817 5816 0
672 5820 5818 0
669 5821 2593 0
669 5813 5821 0
674 5824 5822 0
676 5825 2595 0
676 5826 5825 0
677 5829 5827 0
679 5830 2598 0
679 5831 5830 0
680 5834 5832 0
682 5835 2601 0
682 5836 5835 0
683 5839 5837 0
685 5840 2604 0
685 5841 5840 0
686 5844 5842 0
688 5845 2607 0
688 5846 5845 0
689 5849 5847 0
691 5850 2610 0
691 5851 5850 0
692 5854 5852 0
694 5855 2613 0
694 5856 5855 0
695 5859 5857 0
697 5860 2616 0
697 5861 5860 0
697 5863 5861 0
699 5864 2618 0
699 5865 5864 0
700 5868 5866 0
702 5869 2621 0
702 5870 5869 0
703 5873 5871 0
705 5874 2624 0
705 5875 5874 0
705 5877 5875 0
692 5878 2626 0
692 5852 5878 0
707 5881 5879 0
709 5882 2628 0
709 5883 5882 0
710 5886 5884 0
712 5887 2631 0
712 5888 5887 0
712 5890 5888 0
700 5891 2633 0
700 5866 5891 0
714 5894 5892 0
716 5895 2635 0
716 5896 5895 0
717 5899 5897 0
719 5900 2638 0
719 5901 5900 0
719 5903 5901 0
707 5904 2640 0
707 5879 5904 0
699 5906 5865 0
722 5907 2641 0
722 5908 5907 0
723 5911 5909 0
725 5912 2644 0
725 5913 5912 0
725 5915 5913 0
