#!ascii version of lh.surftest_outer_skin_surface
10242 20480
70.559662  -12.557182  45.626198  0
66.954315  -25.259697  48.943810  0
61.219307  -38.496044  50.829212  0
46.302025  -26.908371  68.864456  0
50.775269  -39.755390  61.168049  0
53.193863  -51.143982  50.969086  0
44.163277  -62.931385  50.061897  0
33.493034  -71.711548  46.613647  0
32.284725  66.330696  47.533474  0
41.126926  56.180729  49.636848  0
49.171837  45.010406  50.307514  0
34.630623  34.594109  66.469696  0
45.935783  34.252098  58.736778  0
56.261383  33.225716  49.619053  0
62.346123  21.211124  47.618980  0
68.300728  9.543066  45.171410  0
75.049850  7.704795  34.951515  0
71.738937  60.087326  -49.350311  0
79.271225  49.616966  -48.804981  0
75.439102  55.282326  -36.364265  0
77.470444  48.303757  -23.072182  0
79.799622  40.920746  -9.681770  0
68.822128  59.721230  4.165545  0
76.030624  46.765739  4.032876  0
80.530182  32.871326  3.351492  0
79.949020  24.524485  15.595030  0
77.704086  16.084461  26.283672  0
-26.727474  97.341385  -51.383286  0
-20.458542  93.583145  -65.176140  0
-11.439419  101.096275  -53.560524  0
4.452588  102.423828  -55.706535  0
21.374672  96.565186  -56.052902  0
23.955139  104.561386  -25.584938  0
32.438370  101.355103  -41.467949  0
39.429852  93.336761  -56.818916  0
54.295994  84.249825  -55.118919  0
63.790787  71.472794  -51.848198  0
-57.575058  62.082825  26.989220  0
-55.964867  72.276176  16.578163  0
-53.239601  82.085617  4.450473  0
-32.080364  91.342781  19.481033  0
-40.878464  92.098465  5.372084  0
-48.475578  90.034897  -9.349606  0
-42.716991  96.908310  -23.936192  0
-35.892605  101.853340  -38.838112  0
-41.007652  94.471100  -52.070747  0
-86.216492  3.838048  -47.220814  0
-85.788742  8.209499  -60.008347  0
-84.537827  17.106628  -48.913761  0
-85.066971  31.818523  -50.685688  0
-82.009476  47.060425  -52.231121  0
-80.366104  47.575905  -23.929909  0
-77.711502  54.411407  -38.269325  0
-73.078857  60.266247  -53.065605  0
-62.807636  72.697952  -53.084045  0
-53.286804  85.677795  -53.051971  0
-77.734787  -36.665169  26.412056  0
-83.168549  -30.542231  15.454391  0
-85.658569  -23.561844  3.102573  0
-84.208725  -2.102908  16.482693  0
-86.440926  -9.289276  3.545352  0
-87.399536  -16.400379  -9.563330  0
-87.348679  -9.229849  -22.307636  0
-86.905670  -2.325746  -34.907455  0
-89.223892  -8.387209  -47.108082  0
-39.307999  -95.113068  -50.551277  0
-43.279629  -91.416229  -63.904236  0
-51.023842  -86.931366  -51.586315  0
-61.949852  -76.342918  -52.631836  0
-70.922699  -63.317093  -52.952560  0
-71.199203  -63.437584  -24.483519  0
-75.240242  -57.015457  -38.315701  0
-79.067383  -49.662621  -52.375763  0
-85.719772  -35.618233  -50.753342  0
-89.760391  -21.882217  -48.507034  0
7.393887  -89.309830  26.201996  0
-0.515393  -93.974304  15.275040  0
-8.786983  -98.107422  3.173589  0
-29.868860  -89.023331  16.300755  0
-23.891159  -95.377655  3.534131  0
-17.286858  -100.460464  -9.993258  0
-25.566299  -100.513443  -23.757185  0
-33.177811  -98.579651  -37.409115  0
-26.665691  -100.131546  -51.003685  0
70.760422  -63.753696  -49.582413  0
68.100739  -66.910416  -62.981369  0
63.279427  -75.408180  -51.757908  0
52.180099  -86.171967  -54.159119  0
37.976357  -95.111771  -55.836166  0
37.604881  -96.340500  -25.315708  0
30.334183  -100.047562  -40.533215  0
21.453430  -100.660873  -56.147682  0
4.275194  -102.060822  -54.912575  0
-11.978161  -101.729538  -52.891762  0
79.875626  -19.962366  26.103088  0
81.375793  -28.714638  15.027200  0
81.279663  -37.063599  2.713564  0
70.586578  -55.457371  16.140112  0
75.579781  -50.487953  3.028270  0
79.238831  -44.663589  -10.283551  0
77.641052  -52.245056  -23.444674  0
74.915001  -58.960556  -36.674034  0
77.060333  -52.578598  -49.231102  0
82.382195  45.635780  -61.882259  0
84.403633  36.738823  -50.031250  0
86.306557  21.728905  -51.636391  0
86.565826  5.787045  -52.763016  0
85.725555  5.115473  -24.414303  0
87.175232  -2.345781  -38.371689  0
89.040115  -10.362667  -52.816322  0
89.837807  -26.318577  -51.874855  0
82.940674  -40.085266  -50.558105  0
-19.390270  94.375511  -82.866493  0
-13.744475  81.587433  -91.135948  0
-7.738566  63.551369  -91.419601  0
23.104099  70.961121  -90.082268  0
9.448145  58.748741  -91.427628  0
-2.883171  46.586029  -91.288528  0
1.261215  30.923101  -89.901688  0
4.615050  16.632824  -91.061798  0
-4.810862  7.433455  -91.568192  0
6.774120  3.686601  -91.664246  0
-89.236023  11.320013  -74.864334  0
-83.437408  13.048651  -88.563309  0
-66.152115  12.583091  -91.654175  0
-64.145020  42.278015  -90.373291  0
-56.555527  26.595474  -91.620529  0
-48.795570  11.662695  -91.644592  0
-32.623611  10.666150  -91.549881  0
-17.907784  9.378611  -91.652573  0
-12.023829  -2.431162  -91.588860  0
-46.169533  -87.992538  -79.667480  0
-43.246571  -76.032715  -90.484039  0
-36.459839  -59.181114  -91.558975  0
-65.014984  -47.907417  -91.155273  0
-46.995392  -45.525780  -91.673859  0
-29.922285  -42.993359  -91.225739  0
-23.881523  -27.928593  -91.485474  0
-17.975967  -14.278547  -91.576553  0
-4.858274  -12.305853  -91.436066  0
66.015930  -67.998611  -78.628494  0
57.057968  -62.908306  -90.216904  0
42.382915  -52.450058  -91.536018  0
23.226273  -77.345520  -91.555267  0
26.168774  -58.870319  -91.507767  0
28.523479  -41.716362  -91.514595  0
15.875006  -31.400650  -91.494263  0
4.636836  -21.658144  -91.595428  0
6.796385  -8.503084  -91.708694  0
79.694534  40.358501  -74.544777  0
70.475113  32.139542  -85.871338  0
58.784225  23.385941  -91.461288  0
76.093933  -1.335894  -91.347458  0
59.776215  6.541245  -91.483566  0
44.581280  13.926417  -91.426849  0
31.084789  5.255006  -91.315353  0
18.492325  -2.408545  -91.664841  0
-5.826699  0.921317  82.486542  0
-4.892767  6.319809  81.986572  0
-0.894308  2.664801  82.735176  0
-5.768192  -4.237183  82.969742  0
-10.642563  -1.781924  82.116669  0
-0.785464  -5.715510  83.494568  0
-4.784188  -9.751198  83.653168  0
2.241024  -1.411191  83.170059  0
4.831694  -6.359682  83.735397  0
4.677267  3.651524  82.779518  0
29.330044  83.385254  32.826378  0
34.338539  80.275101  33.392578  0
29.779926  79.620819  37.088570  0
24.258648  85.603401  33.009724  0
27.846558  87.566223  28.464638  0
21.666471  83.160072  37.409897  0
18.522810  87.150055  33.978371  0
-67.520012  44.359268  29.766861  0
-68.544327  48.071732  25.495033  0
-65.145905  48.661789  29.816303  0
-65.828217  41.358837  33.820408  0
-69.482376  39.461807  30.436478  0
-67.945404  -54.541100  29.449455  0
-70.372803  -53.285797  24.653139  0
-70.539291  -50.189388  29.419100  0
-65.626846  -54.733620  34.078758  0
-64.643326  -58.778709  30.209801  0
28.091440  -84.050896  29.617758  0
26.197945  -86.787857  24.968809  0
23.026321  -85.546844  29.552532  0
28.927740  -81.334251  34.096642  0
33.240849  -81.830063  30.421831  0
78.267288  0.819978  29.022026  0
79.928452  -1.792638  24.345886  0
78.716949  -4.213421  29.032564  0
73.037888  58.491295  -60.575989  0
72.893951  59.572906  -67.329277  0
76.321945  54.859695  -64.156929  0
-38.049248  92.363281  -64.125763  0
-38.080124  88.138565  -70.161873  0
-32.210747  90.987961  -67.366989  0
-87.945755  -6.876060  -58.146717  0
-87.196426  -8.072649  -64.654274  0
-86.667313  -2.405934  -61.791695  0
-28.074667  -97.545898  -62.687744  0
-26.817163  -96.534927  -69.641373  0
-32.823681  -95.641556  -66.398422  0
76.277122  -53.769562  -60.518929  0
77.338387  -53.017128  -67.136581  0
73.892960  -57.674278  -64.368057  0
-42.059940  27.830635  62.960709  0
-41.344757  34.511177  61.522499  0
-36.947021  31.178551  65.013847  0
6.019355  43.104683  71.950821  0
0.952705  47.914814  70.153976  0
8.105469  49.373741  69.045456  0
10.174063  55.440422  65.466377  0
15.128120  50.470406  67.478577  0
-46.925106  -35.177555  68.577209  0
-51.893677  -31.221188  65.364456  0
-47.390842  -27.672096  69.804253  0
-38.420967  17.717884  67.349121  0
-43.615051  14.499773  65.507263  0
-42.676777  21.105808  64.030884  0
-47.060394  24.532558  60.855843  0
16.549643  -57.462616  69.718353  0
11.069838  -62.235737  66.935722  0
9.090412  -56.464378  71.816971  0
-36.012245  -35.081337  74.783661  0
-34.912201  -42.562981  72.892105  0
-41.113716  -38.912029  70.909851  0
-45.841873  -42.396606  66.306732  0
50.672104  -0.872230  65.113304  0
53.933594  -7.177813  63.148773  0
48.507504  -7.147472  67.465790  0
19.816883  -45.701614  75.790710  0
27.121449  -46.376450  73.228271  0
21.944763  -52.165169  71.815613  0
23.794483  -58.079510  67.045227  0
21.924118  51.208557  65.342468  0
19.805397  45.222878  68.612831  0
41.679665  5.408994  70.529465  0
43.697250  11.341612  67.701271  0
47.299244  5.365987  66.727676  0
52.701736  5.179361  62.587990  0
61.244987  78.147659  -16.870827  0
65.531479  71.548027  -16.646152  0
62.854210  74.405991  -9.624032  0
60.463852  48.767624  35.025269  0
64.714127  47.539040  29.143959  0
63.794472  42.604736  34.630081  0
66.985245  36.454342  34.163406  0
62.323036  37.464325  39.557999  0
-6.037816  106.471565  -17.095310  0
-2.015943  107.428169  -24.900620  0
2.515907  106.571693  -17.359924  0
52.420628  86.316208  -9.903393  0
50.265285  90.062119  -17.322002  0
56.326511  84.512825  -17.068752  0
59.310108  81.578781  -24.350918  0
-33.648952  72.880219  41.882210  0
-38.236507  74.906555  36.218391  0
-31.923956  78.941208  37.170860  0
-5.594348  105.231613  -1.881952  0
-14.031929  104.060837  -1.713561  0
-10.066212  105.433052  -9.383224  0
-14.503408  105.459198  -16.879436  0
-83.923340  22.432278  -16.332304  0
-83.660217  25.862354  -23.073677  0
-83.652603  29.638275  -16.551723  0
-65.751495  73.822281  -9.926833  0
-68.438156  71.366074  -17.108746  0
-63.743752  77.653229  -16.978735  0
-61.542843  81.380249  -24.179604  0
-58.640774  83.784462  -16.766558  0
-75.639015  -9.143736  40.321388  0
-78.881409  -12.745794  34.671608  0
-78.688980  -5.575162  34.908051  0
-83.858734  22.567844  -3.176626  0
-84.670639  15.512798  -3.055530  0
-84.380371  18.987926  -9.664694  0
-84.807755  15.341599  -16.116482  0
-55.534439  -83.894760  -17.044888  0
-58.626740  -82.068626  -24.048046  0
-60.895279  -78.635414  -17.266228  0
-83.069962  -37.176430  -10.452408  0
-81.394913  -40.141182  -17.171413  0
-84.422073  -33.654678  -16.818386  0
-85.842407  -30.090954  -23.169640  0
-86.492065  -26.872627  -16.453609  0
-19.486496  -80.932182  39.970123  0
-16.703941  -84.056671  33.803337  0
-23.971184  -82.668785  34.274071  0
-54.512596  -81.836174  -3.588826  0
-48.588772  -86.316605  -3.312227  0
-52.060722  -85.191872  -10.154409  0
-49.556587  -88.584991  -16.845625  0
59.583015  -80.209412  -17.290508  0
57.085434  -82.944550  -24.478542  0
53.962090  -85.473694  -17.541958  0
6.308684  -102.100037  -10.678675  0
10.195293  -102.788406  -17.870777  0
2.162641  -102.973488  -17.668322  0
-2.107342  -103.773697  -24.711790  0
-5.821750  -102.707680  -17.406864  0
66.765228  -42.969086  40.047657  0
70.305145  -41.414879  33.940334  0
67.275269  -48.048004  34.433601  0
58.344994  -79.127823  -3.563683  0
63.461300  -73.606613  -3.432164  0
61.727749  -77.097641  -10.285419  0
64.439407  -74.369110  -17.082741  0
82.761749  30.600082  -16.825859  0
83.306473  27.262478  -23.722019  0
83.648300  23.331804  -17.111874  0
86.739120  -24.062080  -10.545010  0
87.821510  -20.757572  -17.273037  0
86.575478  -28.007549  -17.114346  0
85.953156  -31.889565  -23.776278  0
84.070091  -34.946285  -17.034966  0
20.474972  93.213326  -72.562439  0
16.963402  95.751579  -81.893448  0
24.966164  89.791687  -80.713379  0
42.579803  38.542656  -90.803955  0
34.814877  41.606300  -89.788269  0
35.729897  33.454407  -91.275459  0
29.136135  28.447430  -91.575241  0
36.562843  25.342264  -91.407494  0
-82.524071  46.092487  -67.276047  0
-83.989777  41.221806  -74.550301  0
-79.953918  48.917393  -75.261368  0
-27.449770  52.057457  -87.875008  0
-32.893196  45.473701  -88.877228  0
-24.427418  43.914841  -89.093475  0
-21.590918  36.323555  -90.887878  0
-16.366356  42.338799  -90.393799  0
-71.121841  -63.504593  -68.153336  0
-68.243576  -66.898621  -75.950623  0
-73.877380  -60.191406  -76.101852  0
-62.145763  -9.574800  -91.519150  0
-57.640961  -16.813160  -91.494225  0
-53.416702  -9.444784  -91.525208  0
-45.006519  -9.283417  -91.595665  0
-49.180435  -2.350664  -91.579590  0
38.419724  -93.453491  -72.074158  0
43.168541  -90.490120  -80.062225  0
34.249069  -94.251320  -81.012833  0
-13.690576  -62.481461  -91.660370  0
-5.217617  -60.472237  -91.402756  0
-11.028782  -54.094589  -91.541298  0
-8.552933  -45.975121  -91.467102  0
-16.556618  -47.811668  -91.617355  0
89.233475  6.527750  -67.641235  0
89.673019  11.296709  -74.827042  0
89.973206  2.747403  -75.702866  0
51.680031  -31.852509  -91.511604  0
52.200432  -23.315353  -91.530457  0
44.521370  -26.932590  -91.114105  0
37.550823  -22.206413  -91.048141  0
36.954243  -30.341454  -90.885284  0
-24.267624  14.135408  75.092911  0
-23.198437  20.577091  73.590012  0
-18.632196  17.009132  76.097687  0
-1.770496  18.058399  79.717880  0
-6.455630  22.074961  77.677277  0
0.085292  24.085222  77.784805  0
1.982734  30.393623  76.274460  0
6.725711  25.695293  77.236397  0
-25.755281  -19.383530  79.716217  0
-31.435795  -16.131180  77.535095  0
-26.148930  -12.292658  79.405502  0
-20.493382  4.419512  78.887772  0
-25.807966  1.182846  77.631165  0
-25.188049  7.702486  76.486664  0
-29.684990  11.023782  73.741028  0
7.703979  -30.752953  82.335258  0
2.647898  -36.335796  81.641129  0
0.522286  -29.238388  82.831146  0
-14.473270  -18.097183  82.812683  0
-13.240524  -25.090059  82.548172  0
-19.688541  -22.394909  81.445053  0
-25.018200  -26.686846  79.537491  0
26.905262  -0.824432  78.472420  0
30.302351  -7.041223  77.553062  0
23.906288  -6.961856  80.114456  0
9.852730  -18.351959  83.436180  0
16.641541  -19.113419  81.982437  0
12.384903  -24.990072  82.367523  0
14.921700  -31.847794  80.855042  0
13.349249  26.884394  75.979492  0
11.255682  20.933464  78.201614  0
17.142979  4.841033  81.270142  0
19.562538  10.672235  79.180817  0
23.389427  5.089597  79.107910  0
29.543718  5.249085  76.485748  0
46.466019  84.977661  10.948065  0
51.826363  79.591690  10.900182  0
47.804649  80.565628  17.357437  0
43.740738  71.171371  34.262741  0
48.424797  70.787613  29.006611  0
48.184349  65.895859  34.593918  0
52.495285  60.400177  34.871082  0
47.446327  60.849613  39.905296  0
11.407566  100.803543  11.819981  0
15.447740  102.145401  4.709294  0
19.232323  99.148720  11.436340  0
36.229279  89.704391  17.366535  0
33.830856  93.645615  11.016265  0
40.426117  89.664696  10.950285  0
44.325401  88.751877  4.100578  0
-5.200194  83.049744  42.255661  0
-10.020746  86.606735  37.387215  0
-2.447320  87.397530  36.557365  0
11.479776  94.988617  24.370510  0
3.920850  95.498367  24.958733  0
7.526989  98.541550  18.601957  0
3.322817  101.721947  12.271191  0
-80.294312  36.129967  9.478073  0
-80.870926  39.965439  3.127030  0
-78.537354  42.772026  9.402987  0
-68.705719  56.208042  15.047956  0
-72.279327  54.886597  9.161245  0
-68.276085  60.505844  9.218082  0
-67.804459  65.022667  3.173714  0
-64.090019  66.133133  9.529215  0
-71.766396  18.276321  38.574650  0
-76.234222  15.294731  34.172638  0
-74.834648  21.856689  33.425766  0
-76.860504  35.206741  21.368866  0
-78.453232  28.856709  21.748932  0
-79.559891  32.436512  15.684313  0
-81.509659  29.346535  9.576499  0
-63.290825  -69.328026  8.487125  0
-65.881149  -67.498230  2.064573  0
-67.337402  -63.828743  8.110329  0
-75.310448  -49.158623  13.940176  0
-74.373123  -52.448410  7.916099  0
-77.585739  -46.555267  8.124224  0
-79.888458  -43.765312  2.083314  0
-80.554260  -40.425934  8.490628  0
-46.801353  -70.552261  39.240170  0
-44.547440  -75.053505  33.940247  0
-50.388252  -71.193527  33.127659  0
-62.082901  -66.775238  20.388483  0
-57.399460  -71.489365  21.038403  0
-60.455597  -70.683411  14.816818  0
-58.726746  -74.581871  8.939484  0
44.608093  -85.866150  9.065672  0
42.350124  -89.070320  2.598596  0
38.192490  -89.151894  8.795516  0
20.755713  -92.378494  14.417479  0
24.681292  -94.045303  8.658871  0
17.566860  -95.361565  8.684975  0
14.072718  -98.172729  2.576574  0
10.258955  -95.826843  8.701779  0
49.654156  -66.737839  39.334221  0
54.682762  -66.125961  34.196579  0
49.495712  -71.056885  33.487991  0
42.240547  -82.886246  21.068779  0
48.178707  -79.280334  21.702408  0
46.580559  -82.651878  15.434907  0
50.608330  -81.750587  9.328223  0
82.368103  14.850364  8.513699  0
83.338974  11.734039  2.057401  0
82.684402  8.024012  8.067070  0
82.971664  -8.511287  13.822390  0
83.648918  -5.459339  7.829333  0
84.213959  -12.250130  8.058754  0
85.331848  -16.119247  2.055002  0
84.267349  -19.137383  8.391830  0
52.738453  78.822876  -69.190552  0
49.730610  79.343987  -77.361076  0
57.178040  75.180450  -75.475998  0
66.354584  56.166576  -79.570404  0
60.737762  61.205536  -83.397705  0
63.157722  53.658836  -87.241104  0
56.906326  49.166229  -91.087349  0
64.227112  45.039505  -88.978943  0
-60.615665  71.899414  -67.718704  0
-63.820786  70.154366  -75.727257  0
-56.999458  75.389053  -74.791107  0
-38.883739  83.194733  -84.959610  0
-45.061817  77.979416  -86.050293  0
-37.105591  76.999542  -89.236748  0
-33.891445  68.871773  -88.734879  0
-28.430229  75.698448  -90.588661  0
-88.931099  -35.073177  -65.198624  0
-87.811417  -37.741432  -73.720764  0
-90.031082  -29.784584  -71.951019  0
-89.043213  -9.188002  -80.434273  0
-89.739502  -16.921745  -84.134659  0
-88.086517  -9.410627  -88.449554  0
-80.382637  -9.627805  -91.422348  0
-84.459366  -1.867545  -90.716873  0
2.399608  -102.368347  -70.566261  0
5.865154  -102.603119  -79.786682  0
-3.687850  -102.742188  -77.915108  0
-25.265636  -95.137589  -86.193329  0
-16.834917  -95.548340  -89.266350  0
-22.806547  -88.855652  -91.069855  0
-19.583565  -80.001671  -91.517181  0
-28.643833  -81.743668  -91.443718  0
90.216156  -27.996998  -66.994240  0
90.652992  -24.666964  -75.653633  0
88.812561  -33.354294  -74.180252  0
77.619171  -51.320293  -82.264900  0
80.727509  -43.925591  -85.553261  0
72.771683  -47.293304  -87.972641  0
66.355667  -42.427185  -91.174011  0
65.105255  -50.737747  -89.708878  0
-57.072681  39.556164  45.933285  0
-56.271393  45.288979  43.458553  0
-52.851341  43.003521  48.264069  0
-39.356659  47.695339  56.948448  0
-43.347893  50.347107  52.093117  0
-38.058815  54.128113  53.808910  0
-36.699257  60.489090  50.221771  0
-32.487385  58.026764  55.500015  0
-21.031672  33.967636  71.318832  0
-25.973301  37.827637  68.778046  0
-19.780226  40.912666  70.034210  0
-9.358492  56.865181  64.811966  0
-16.486094  54.583397  65.056061  0
-14.564213  61.191193  61.691246  0
-19.588684  64.813118  57.510796  0
-12.439463  67.322266  57.509117  0
-10.149126  72.842796  52.624702  0
-5.085899  68.882095  56.564339  0
14.070541  66.368835  56.660896  0
9.166983  70.533508  53.414600  0
15.919415  71.177734  51.684952  0
17.750172  75.606659  46.699814  0
22.237988  71.364754  49.319592  0
-61.522133  -46.482044  47.169174  0
-65.583633  -42.893539  44.177856  0
-62.679008  -40.300690  49.562119  0
-60.758286  -23.549675  58.255104  0
-64.521057  -26.942257  53.257999  0
-65.281830  -19.921196  54.738621  0
-69.178268  -16.290501  50.448776  0
-65.205872  -12.727890  55.288460  0
-41.906334  -9.258879  72.712334  0
-47.131378  -12.868729  70.151459  0
-46.552254  -5.745291  69.555069  0
-53.639618  7.978156  60.806900  0
-54.637428  1.192982  61.808739  0
-58.299126  4.614776  57.588890  0
-62.953217  1.262722  54.059814  0
-61.686371  7.976514  53.050636  0
-64.963425  11.318031  48.273624  0
-60.589058  14.578259  51.999538  0
-54.518036  30.716763  52.529221  0
-58.709324  27.415337  49.483826  0
-57.827633  33.565384  47.865471  0
-60.876373  36.270470  43.087914  0
22.481293  -75.427246  47.423740  0
17.645428  -78.655472  44.321388  0
16.115747  -75.185341  49.861946  0
0.249717  -70.363434  59.796463  0
2.354561  -74.545258  53.964996  0
-4.964553  -74.000107  55.666412  0
-10.018423  -76.782455  50.805603  0
-12.477718  -72.861984  56.879059  0
-8.140160  -46.699768  77.959763  0
-6.122943  -53.561569  74.631241  0
-13.696892  -51.486343  75.195068  0
-31.654903  -56.596676  66.623383  0
-24.587185  -59.734428  67.463898  0
-29.715923  -63.077541  62.600830  0
-27.364590  -68.535873  57.525352  0
-34.482864  -65.769424  57.142456  0
-38.934006  -67.932274  51.372505  0
-40.949448  -62.156342  55.876511  0
-53.873413  -48.148155  55.630028  0
-52.496319  -54.462189  52.408104  0
-57.253685  -50.408199  49.955475  0
-60.277809  -52.272503  44.328964  0
69.416611  -1.310588  46.153206  0
71.616699  -6.748489  43.399776  0
68.079330  -6.956312  48.630058  0
60.100479  -19.761749  57.980595  0
64.836121  -19.358303  52.827461  0
62.532341  -25.957771  54.417458  0
64.452454  -31.913040  50.156685  0
59.686737  -32.616631  55.537560  0
37.007984  -20.154041  75.045746  0
43.422829  -20.220692  71.613342  0
40.159195  -26.962906  72.996063  0
40.653687  -46.602379  65.888313  0
45.092621  -40.206181  66.071182  0
46.662010  -46.230385  61.281143  0
52.183140  -45.631863  56.264759  0
47.891472  -51.913921  56.117046  0
48.968536  -57.349003  50.829906  0
43.415932  -58.020763  55.705177  0
26.644913  -67.987366  56.049759  0
32.945076  -67.895424  52.523285  0
27.617619  -71.890869  50.161911  0
28.421013  -75.550598  44.558167  0
28.039488  71.218933  46.282417  0
26.644131  66.528549  51.074242  0
34.130859  51.214264  58.427395  0
35.436298  56.266121  53.540237  0
39.780861  50.988075  54.424713  0
45.363670  50.774338  50.228638  0
43.772480  45.371777  54.731846  0
26.358219  28.534760  72.505447  0
28.562109  34.465302  69.794159  0
32.657745  28.847214  69.815659  0
47.592396  22.806221  61.589592  0
44.075516  28.665697  62.242920  0
49.636711  28.462929  58.421288  0
51.320145  33.897331  54.522854  0
54.603046  27.927992  53.770012  0
59.140980  27.113150  48.528748  0
57.658657  21.920052  52.605881  0
61.961300  4.524438  52.765491  0
63.527924  9.989480  49.681419  0
66.705070  4.278306  48.214218  0
70.875130  3.920877  43.475723  0
70.015366  63.804932  -43.589149  0
73.833130  58.091698  -42.926590  0
71.887581  61.405197  -36.772591  0
73.210052  58.411034  -16.313038  0
74.659988  55.048798  -23.102570  0
76.177429  51.601761  -16.297546  0
78.812424  44.719131  -16.372629  0
77.468163  47.929932  -9.503298  0
60.953476  67.661774  10.738958  0
64.681519  65.964111  4.135656  0
65.010872  61.441063  10.654608  0
73.129761  44.691566  17.090805  0
73.107330  49.108124  10.731384  0
76.235924  42.503510  10.504447  0
78.662231  39.903183  3.756321  0
78.551697  35.632893  10.090868  0
80.357422  28.709671  9.597612  0
78.357040  31.349396  16.243134  0
73.331741  24.302299  33.301727  0
76.722618  22.544048  27.433205  0
75.119141  18.023830  32.167564  0
76.191521  11.887804  30.837599  0
73.749588  13.484217  36.520645  0
-23.431648  102.259735  -45.912567  0
-19.108744  98.918121  -52.191147  0
-15.347592  103.626099  -46.500381  0
5.949780  106.675415  -40.840744  0
1.069531  105.288940  -48.137131  0
9.497332  103.690666  -48.496643  0
12.710023  99.521805  -55.968391  0
18.101925  101.409760  -48.679371  0
23.437555  101.945396  -10.286869  0
19.525181  104.344360  -17.781124  0
27.704716  101.713303  -17.898006  0
45.198090  97.206230  -33.075394  0
37.091446  101.235275  -33.414848  0
41.110455  98.420074  -41.333206  0
35.785378  96.702568  -48.883572  0
44.404121  93.988831  -48.876549  0
47.642765  89.684746  -56.371002  0
52.279556  89.778343  -48.384438  0
65.059082  74.596069  -38.323402  0
63.383213  77.071228  -46.034794  0
66.755486  70.206924  -44.674995  0
67.788589  65.517273  -50.413017  0
-54.718796  56.173096  36.783615  0
-58.166504  57.068268  31.486046  0
-53.931160  61.513832  32.627914  0
-47.067856  77.446762  24.054752  0
-52.122986  72.255859  22.931137  0
-50.979130  77.620956  17.439486  0
-54.845821  77.345459  10.752865  0
-49.436729  82.701218  11.440020  0
-19.759933  92.581406  26.175907  0
-27.423244  89.964554  26.122942  0
-24.561329  94.568954  19.719105  0
-30.261295  99.267471  -1.642425  0
-33.696762  96.202591  5.650483  0
-37.679047  95.441490  -1.790063  0
-44.659981  91.135071  -2.013742  0
-41.515488  94.296959  -9.248909  0
-45.719910  93.633026  -16.545891  0
-38.337257  97.369492  -16.592850  0
-23.641781  105.896660  -31.760380  0
-31.770947  103.298843  -31.552185  0
-27.928352  104.459457  -39.108864  0
-31.240509  100.298157  -45.463570  0
-85.585045  7.459938  -41.458397  0
-85.107841  10.250584  -47.963806  0
-84.625137  14.219536  -42.061180  0
-83.665894  32.659496  -36.937866  0
-84.272583  28.579119  -43.444134  0
-83.901993  36.046944  -44.094437  0
-84.238419  39.489037  -51.509567  0
-82.460083  43.537941  -44.708630  0
-80.290955  47.522781  -10.186552  0
-81.632339  44.094414  -16.948086  0
-79.146606  51.144958  -17.092503  0
-72.436920  64.914017  -31.488914  0
-75.803818  57.922165  -31.293961  0
-74.073074  61.274281  -38.576309  0
-75.993652  57.649536  -45.638786  0
-71.511276  64.153145  -45.917473  0
-67.891411  66.399704  -53.144279  0
-67.166489  70.795486  -46.136288  0
-56.717693  88.496918  -39.028511  0
-58.225357  84.414169  -46.382732  0
-52.635456  90.441757  -46.263577  0
-47.538776  90.874641  -52.681557  0
-46.045719  95.121765  -45.982292  0
-72.878738  -36.408569  36.747932  0
-74.896408  -39.613922  31.303204  0
-76.156158  -33.279449  32.176266  0
-83.577667  -20.019918  22.445440  0
-82.530914  -27.041790  21.900812  0
-84.637604  -23.611309  15.954887  0
-84.835876  -27.139935  9.381884  0
-85.643097  -20.029617  9.709280  0
-82.013649  8.563246  22.767281  0
-82.540649  1.498336  22.829296  0
-83.521011  4.980814  16.442396  0
-86.002556  1.349910  -2.905938  0
-85.830704  -2.178706  3.582604  0
-86.628136  -5.740031  -2.906937  0
-86.942001  -12.866305  -3.001176  0
-87.161026  -9.287035  -9.430108  0
-87.480804  -12.787985  -15.949499  0
-86.957375  -5.756204  -15.856539  0
-85.521225  7.994092  -28.854273  0
-86.319748  1.115360  -28.671883  0
-85.931046  4.382081  -35.059147  0
-86.730820  0.933168  -41.095287  0
-42.936234  -93.743576  -44.195007  0
-45.157341  -91.254913  -50.971313  0
-48.923508  -89.497765  -44.520046  0
-62.416496  -76.047890  -38.307503  0
-59.787155  -79.136772  -45.289162  0
-64.417297  -73.005219  -45.536659  0
-66.485565  -69.901810  -52.892708  0
-68.837357  -66.614708  -45.649048  0
-70.727356  -62.871197  -11.026873  0
-69.342712  -66.472466  -17.644083  0
-72.554291  -59.925957  -17.701672  0
-78.899155  -46.526367  -30.942886  0
-76.256271  -53.476746  -31.206451  0
-78.370789  -50.081982  -38.021950  0
-77.047272  -53.406513  -45.321308  0
-80.157333  -46.325638  -44.888966  0
-82.366577  -42.522999  -51.746773  0
-82.555054  -39.064178  -44.303024  0
-88.219513  -22.691635  -35.666397  0
-88.807602  -25.910288  -42.357147  0
-89.464226  -18.917065  -41.711800  0
-89.663284  -14.949446  -47.667618  0
-88.977264  -12.114691  -41.258789  0
8.793779  -84.169945  36.517593  0
11.248751  -86.794250  31.040985  0
4.605361  -86.585693  31.817749  0
-10.958796  -90.435425  21.715122  0
-3.693441  -91.328453  21.354805  0
-7.866032  -93.350655  15.586750  0
-4.595005  -95.998077  9.295204  0
-12.084347  -95.163528  9.551901  0
-39.473366  -82.718948  22.304874  0
-32.591118  -85.358627  22.365744  0
-36.809647  -86.290619  16.205547  0
-35.452229  -93.723999  -2.950501  0
-31.220858  -93.176102  3.599349  0
-28.191174  -96.326088  -2.970380  0
-20.710018  -98.338943  -3.064839  0
-24.923862  -98.816025  -9.809209  0
-21.466396  -100.702553  -16.851608  0
-28.956581  -98.594368  -16.707016  0
-43.613987  -94.088745  -30.566614  0
-36.601280  -97.016220  -30.516918  0
-40.120510  -95.849709  -37.400146  0
-36.544018  -97.094254  -44.066795  0
69.070961  -67.333855  -43.684475  0
67.318146  -69.526917  -50.553135  0
65.051956  -73.203735  -44.470543  0
51.613724  -87.529495  -39.375320  0
54.913773  -84.415268  -46.301567  0
48.530907  -89.270493  -47.112862  0
45.396347  -90.890984  -55.124260  0
41.604469  -93.804932  -47.767605  0
36.954773  -95.205490  -10.917772  0
40.947758  -94.274925  -17.947754  0
33.660110  -97.483025  -18.082237  0
18.070250  -102.722656  -32.806889  0
26.197996  -100.864120  -32.906799  0
22.108255  -102.208801  -40.510464  0
26.124454  -100.969894  -48.357834  0
17.635357  -102.603409  -48.166779  0
12.808155  -101.641235  -55.666977  0
9.114293  -103.146545  -47.693420  0
-10.822153  -103.428772  -38.713646  0
-7.348515  -102.781197  -46.223045  0
-15.193878  -102.428078  -45.452560  0
-19.556313  -101.277924  -51.881653  0
-22.721842  -101.522003  -44.753540  0
75.661163  -16.911064  36.359478  0
78.517494  -15.488804  30.938093  0
77.116425  -21.734657  31.809372  0
76.972153  -37.840225  21.739553  0
79.073425  -31.063263  21.248970  0
79.619919  -35.598701  15.440312  0
81.592758  -32.977657  8.988211  0
79.591148  -39.908150  9.300603  0
63.202991  -63.600426  22.517235  0
67.304489  -57.454109  22.496986  0
66.688278  -61.723961  16.206448  0
71.617401  -61.122162  -3.385246  0
72.568207  -57.196846  3.188752  0
74.550446  -54.355888  -3.495061  0
77.462402  -47.620453  -3.623260  0
76.313477  -51.361416  -10.201927  0
78.226761  -48.385159  -16.874813  0
75.439514  -55.139999  -16.811638  0
68.874573  -68.036896  -30.459028  0
72.808838  -61.953201  -30.195042  0
70.906342  -64.765305  -36.923660  0
72.830063  -61.576515  -43.170822  0
80.261063  46.077320  -42.740463  0
82.124451  43.492676  -49.306061  0
82.503700  39.380783  -43.147209  0
84.733795  20.621868  -37.696182  0
85.028305  24.900345  -44.344498  0
85.459793  17.260551  -44.907471  0
86.260696  13.826597  -52.325516  0
86.087257  9.478556  -45.315453  0
84.991455  4.950579  -11.015429  0
85.085457  8.699317  -17.587513  0
85.844543  1.363680  -17.677420  0
88.175583  -13.735037  -31.146851  0
87.172165  -6.168996  -31.317474  0
88.418549  -10.045753  -38.238846  0
88.226181  -6.247413  -45.520813  0
89.643814  -14.110201  -45.246651  0
90.449661  -18.454193  -52.429306  0
90.108826  -21.970798  -44.847527  0
83.167908  -39.220734  -37.092651  0
84.417267  -36.112434  -44.080688  0
81.576279  -42.866119  -43.580185  0
79.981468  -46.539001  -49.791893  0
78.909836  -49.396282  -43.166298  0
-13.609792  97.504601  -67.798889  0
-19.308517  93.779694  -73.590576  0
-13.095730  99.834366  -77.229691  0
2.931891  87.258057  -91.328842  0
-7.489982  89.561172  -90.930038  0
-4.138562  79.700958  -91.406815  0
-10.491738  72.475937  -91.260803  0
-1.429063  70.302307  -91.633163  0
38.568939  73.026779  -88.071899  0
30.465416  76.630112  -89.642670  0
31.450985  67.675751  -88.658699  0
19.003353  47.351032  -89.911652  0
17.615700  55.981979  -90.259964  0
11.210905  50.115318  -91.072418  0
3.097629  52.625374  -91.527618  0
5.062804  44.326279  -91.320297  0
-0.744758  38.597954  -90.752083  0
6.868198  36.310619  -91.344681  0
16.868706  18.874701  -91.397064  0
10.043081  21.392208  -90.988632  0
11.182810  14.348174  -91.424164  0
5.876429  10.009205  -91.463066  0
12.038095  7.514383  -91.664520  0
-86.162231  15.042231  -61.823753  0
-87.337769  9.849751  -67.112930  0
-88.065674  17.140636  -69.365631  0
-81.542740  27.735119  -84.652000  0
-86.386414  20.323158  -84.688431  0
-78.375687  20.246078  -88.271652  0
-75.079453  13.015993  -91.244171  0
-70.202881  20.207897  -91.187088  0
-62.314129  57.755089  -88.234528  0
-67.479736  50.151367  -87.495514  0
-59.246925  49.685345  -91.132431  0
-43.050411  32.539207  -91.664688  0
-51.644211  33.513176  -91.714539  0
-47.943680  25.814213  -91.704941  0
-52.678051  19.035561  -91.546043  0
-44.235123  18.371124  -91.560379  0
-40.538803  11.172497  -91.530869  0
-36.083359  17.640102  -91.559494  0
-16.233597  21.697384  -91.405968  0
-20.781837  15.967422  -91.692612  0
-13.659420  14.911380  -91.534821  0
-11.150045  8.544635  -91.561752  0
-6.845665  13.627893  -91.488121  0
-49.423210  -87.500664  -65.355850  0
-44.918564  -90.030823  -71.465698  0
-51.150864  -85.338486  -73.229630  0
-57.183655  -70.278793  -88.718903  0
-51.490868  -76.831100  -87.844101  0
-48.645245  -69.053383  -90.682144  0
-39.827858  -67.590385  -91.549568  0
-45.243019  -60.688599  -91.602463  0
-79.408386  -41.200325  -88.799683  0
-73.865349  -48.666618  -88.633842  0
-70.295845  -40.571228  -91.273911  0
-48.259094  -30.755117  -91.378075  0
-52.064720  -38.600632  -91.597504  0
-43.346657  -37.544930  -91.410065  0
-38.323586  -44.285233  -91.540306  0
-34.931969  -36.498596  -90.738647  0
-26.867067  -35.325031  -91.112144  0
-31.708448  -28.995026  -90.767944  0
-29.219635  -8.819840  -91.420349  0
-25.186153  -14.964254  -91.505844  0
-21.917561  -8.510279  -91.620209  0
-15.044924  -8.118273  -91.727600  0
-18.565676  -2.449690  -91.515961  0
64.221436  -72.621292  -65.240112  0
67.034180  -67.659409  -70.468086  0
62.480728  -73.338432  -73.306755  0
48.407673  -76.080093  -90.483490  0
56.418152  -71.656105  -88.987083  0
49.082069  -66.799538  -91.136536  0
49.670521  -57.816505  -91.398613  0
41.560966  -61.323090  -91.414825  0
11.968935  -90.081779  -91.360855  0
21.457256  -87.111755  -91.371635  0
14.200279  -80.304688  -91.678833  0
11.325026  -55.767609  -91.535004  0
17.873646  -61.802063  -91.660599  0
19.421345  -53.068962  -91.437393  0
27.416107  -50.162086  -91.565117  0
20.811966  -44.649506  -91.413101  0
22.044910  -36.500916  -91.463326  0
14.566496  -39.241219  -91.405411  0
-4.077255  -30.731377  -91.337486  0
3.071744  -28.749289  -91.606232  0
-2.117674  -23.640917  -91.444710  0
-0.370747  -16.958530  -91.422745  0
-6.878152  -18.567165  -91.345551  0
85.252747  39.035614  -63.546120  0
83.077576  43.903473  -69.252808  0
85.515137  36.530739  -71.240112  0
77.777161  19.235287  -83.224777  0
75.613014  27.325405  -80.689354  0
72.368607  24.017139  -87.993652  0
65.929932  28.255558  -90.967575  0
66.584320  19.780134  -91.281525  0
84.769699  -15.534349  -90.369339  0
84.499161  -5.705741  -90.181473  0
76.464676  -10.696300  -91.447601  0
52.589870  -6.346650  -91.629684  0
60.111053  -2.006096  -91.836754  0
52.427608  2.011047  -91.557625  0
52.087139  10.303624  -91.354645  0
44.984459  5.824713  -91.255264  0
37.720245  9.465839  -91.251526  0
38.035866  1.609827  -91.026459  0
24.442291  -13.436649  -91.531822  0
24.711542  -6.057629  -91.472008  0
18.344866  -9.425434  -91.454224  0
12.556763  -5.685810  -91.512901  0
12.104395  -12.379875  -91.621025  0
-14.998167  7.334658  79.712479  0
-14.054588  13.528810  78.679138  0
-9.355795  9.874674  80.401382  0
-3.464494  12.067037  81.010963  0
2.739323  13.791502  81.037613  0
-15.339310  -11.389122  82.585068  0
-20.888638  -8.554409  80.796585  0
-15.688200  -5.004753  81.668419  0
-15.579094  1.195317  80.717003  0
3.178469  -17.296661  84.296234  0
-1.475106  -22.364342  83.679176  0
-3.300861  -15.817446  84.369049  0
-9.466278  -13.860929  83.696503  0
14.248449  -1.022955  82.422562  0
17.458176  -6.858576  82.139427  0
11.014658  -6.680860  83.289116  0
7.351092  -12.090525  83.961143  0
9.126652  15.052717  80.240540  0
6.963215  9.264116  81.998520  0
10.770440  4.356979  82.355423  0
37.878395  85.260262  23.209312  0
43.503609  80.993744  23.388588  0
38.952667  80.846443  28.795696  0
39.062286  75.983093  33.812035  0
38.625336  71.130524  38.751667  0
18.690788  93.661072  23.785606  0
22.628748  95.664337  17.717167  0
25.475460  91.562912  23.320305  0
31.826790  88.753593  23.107586  0
9.169508  83.723190  39.865417  0
4.925284  87.733856  35.641777  0
11.962587  87.635063  34.756310  0
15.144710  91.134613  29.553820  0
-74.612770  41.181107  20.896084  0
-75.476440  45.047108  15.235729  0
-71.981461  46.796295  20.584583  0
-68.913284  52.110352  20.555729  0
-65.017151  56.962418  20.620522  0
-69.099846  30.769901  36.599155  0
-73.397491  28.220955  32.636063  0
-71.623116  34.120026  31.600552  0
-73.439789  37.558540  26.361237  0
-66.076218  -61.770309  19.794327  0
-68.610748  -60.208900  13.932327  0
-69.631699  -56.658737  19.454092  0
-72.878220  -51.431915  19.470387  0
-75.936020  -45.969467  19.866066  0
-57.408516  -62.548325  36.836266  0
-55.747643  -67.171684  32.202206  0
-60.507706  -62.996315  31.181862  0
-63.382011  -62.727676  25.523397  0
36.058147  -85.478241  20.352467  0
33.976944  -88.591492  14.563869  0
29.866285  -87.602310  19.889977  0
23.649857  -89.462471  19.826431  0
17.190956  -90.703712  20.029427  0
39.177677  -75.570923  37.182304  0
44.175156  -75.466919  32.647240  0
38.657478  -78.977478  31.526318  0
37.713837  -82.491425  26.070267  0
80.343521  7.384301  19.620602  0
81.831367  4.482474  13.799103  0
80.914062  1.174174  19.244793  0
81.522079  -4.986393  19.273014  0
82.145691  -11.241358  19.690685  0
64.111244  68.190750  -64.987976  0
63.293747  69.937698  -72.844467  0
68.400482  64.575569  -70.087051  0
71.125504  59.125549  -74.011627  0
72.184082  51.817917  -76.120331  0
-49.364128  83.121590  -66.432907  0
-50.186028  79.729385  -73.586456  0
-44.092518  84.165421  -72.120354  0
-38.159073  84.748169  -77.113480  0
-31.898796  86.369202  -82.010414  0
-90.022614  -19.709568  -61.786667  0
-89.760994  -21.887077  -69.757614  0
-88.225677  -14.641657  -67.301895  0
-87.825943  -8.794845  -72.175835  0
-88.765594  -2.245343  -76.326767  0
-14.251856  -99.951874  -66.923721  0
-12.299961  -100.707535  -75.455460  0
-19.855278  -98.064774  -72.650574  0
-26.095398  -96.220383  -77.708603  0
-32.881996  -94.006973  -82.090790  0
83.870178  -42.792305  -63.955185  0
86.091721  -41.447826  -72.044327  0
81.830307  -47.874542  -69.639206  0
78.526138  -52.803711  -74.687469  0
74.148987  -57.346649  -78.951675  0
-50.189072  34.153046  55.237549  0
-49.288673  40.449818  53.027069  0
-45.479465  37.624275  57.492767  0
-40.526360  41.194580  59.631477  0
-35.244019  44.782684  61.574013  0
-8.031195  39.345947  72.847969  0
-13.138506  43.644424  70.608475  0
-6.194452  46.027218  70.702423  0
-4.215179  52.504784  67.753967  0
-2.128607  58.637024  63.981667  0
-0.010859  64.549896  59.875626  0
5.080491  60.042068  62.802635  0
12.189737  61.258736  61.479385  0
18.908747  61.704136  59.075729  0
-54.922768  -41.413956  58.157295  0
-59.385429  -37.499153  54.955559  0
-55.759167  -34.464523  60.216209  0
-56.416222  -27.321686  61.873814  0
-56.645729  -20.067150  62.871666  0
-40.368542  4.480784  70.429718  0
-45.663536  1.141943  68.413628  0
-44.719315  7.894944  67.128448  0
-48.758114  11.278389  63.430374  0
-52.719398  14.647942  59.645554  0
-56.486923  17.975971  55.591316  0
-51.946980  21.288422  58.511398  0
-50.998299  27.736221  56.940292  0
19.979401  -67.885513  59.125034  0
14.574144  -71.546371  55.746693  0
12.933590  -67.430725  61.661880  0
5.608324  -66.499268  63.602680  0
-1.868625  -65.517410  65.374413  0
-22.786331  -41.656712  77.639664  0
-21.129082  -48.933762  75.104767  0
-28.254841  -45.928665  74.301407  0
-33.406239  -49.723949  70.077133  0
-38.158646  -52.943039  65.047699  0
-42.714157  -55.863300  59.805145  0
-44.327332  -49.240253  63.247284  0
-50.020294  -45.441216  61.046097  0
60.538574  -1.170617  55.726357  0
63.745026  -7.099319  53.586651  0
59.032249  -7.167559  58.481876  0
57.119171  -13.480753  60.795380  0
54.706612  -20.010571  62.611015  0
29.405869  -33.353073  76.941742  0
36.332001  -33.652992  73.796967  0
31.970852  -40.187202  73.935646  0
34.078445  -46.637508  69.854843  0
35.843735  -52.697079  65.140343  0
37.319542  -58.345718  60.040825  0
30.750553  -58.370399  63.828945  0
25.423870  -63.499260  61.858551  0
25.211897  61.733589  56.043743  0
23.664127  56.648376  60.885529  0
28.178736  51.297859  62.071995  0
32.598038  45.952648  62.941662  0
34.159508  17.123102  71.769394  0
36.398888  23.066462  69.196846  0
39.998802  17.156292  68.326080  0
45.639175  17.098183  64.686432  0
50.971786  16.904175  60.696571  0
56.053001  16.523703  56.240494  0
54.229759  10.913605  59.362968  0
57.319466  4.825253  57.624641  0
65.977020  71.328186  -30.869801  0
69.795387  64.799911  -30.309650  0
67.784378  68.279053  -23.588190  0
69.618790  65.040047  -16.442312  0
71.114517  61.459419  -9.423073  0
61.601856  58.561852  23.451763  0
65.228867  56.911598  17.057743  0
65.473297  52.465553  23.405252  0
69.057220  46.261257  23.229631  0
72.527290  39.999374  23.038364  0
75.475212  33.578522  22.663755  0
71.639130  35.294231  28.684132  0
70.286133  30.397404  33.796486  0
68.920761  25.522692  38.608601  0
-15.162436  107.030220  -32.112404  0
-11.194813  106.879761  -39.903339  0
-6.626157  107.535721  -32.481522  0
2.019545  107.594658  -32.866394  0
10.754456  107.122208  -33.222908  0
38.653473  95.101913  -10.366762  0
35.598305  98.385559  -17.853989  0
43.139832  94.472977  -17.671421  0
47.873383  93.713913  -25.036068  0
52.433193  91.980652  -32.604675  0
56.368820  88.858124  -40.246071  0
57.948009  85.341904  -32.071156  0
62.122887  78.207718  -31.503626  0
-45.103462  64.580490  39.450336  0
-49.179863  66.002663  33.821316  0
-43.958603  70.507553  35.049633  0
-42.749237  76.478592  30.315468  0
-41.216736  82.251884  25.033440  0
-13.232794  100.609161  12.871616  0
-21.391628  98.660492  12.952421  0
-17.889599  102.033737  5.801987  0
-22.299702  102.096931  -1.623958  0
-26.507372  101.482445  -9.149738  0
-30.644608  100.622269  -16.661180  0
-22.727020  103.492958  -16.725391  0
-19.019707  105.621964  -24.341970  0
-84.618813  14.948992  -29.152622  0
-84.166168  18.153650  -35.887600  0
-83.889252  22.023043  -29.531677  0
-83.734665  29.271347  -29.943615  0
-83.022110  36.563698  -30.345161  0
-74.196472  61.109123  -10.203842  0
-76.138336  58.062344  -17.170841  0
-72.529251  64.782616  -17.185139  0
-70.511581  68.274078  -24.314135  0
-68.358826  71.660507  -31.599636  0
-65.863686  74.813370  -38.960762  0
-63.791191  78.252571  -31.616209  0
-59.156891  84.973679  -31.555161  0
-53.772392  91.265762  -31.425570  0
-75.289749  -23.277576  39.196995  0
-77.701355  -26.751545  33.311134  0
-78.858932  -19.885246  34.286095  0
-81.583115  -16.382336  28.713978  0
-83.556641  -12.813088  22.704865  0
-83.232590  15.484522  9.844826  0
-84.132706  8.480543  9.980709  0
-84.630966  12.011568  3.490094  0
-85.461243  8.440928  -2.952940  0
-85.922653  4.844108  -9.426369  0
-86.502563  1.274421  -15.866902  0
-85.622444  8.290665  -15.954008  0
-85.060944  11.654322  -22.520004  0
-50.097610  -90.088867  -30.733692  0
-52.562935  -87.518150  -37.823433  0
-55.944859  -85.170898  -30.960030  0
-60.794918  -79.300125  -31.176550  0
-64.992218  -72.974731  -31.335072  0
-76.974518  -50.051132  -10.973146  0
-75.455765  -53.277031  -17.643656  0
-78.478546  -46.719418  -17.465240  0
-79.964539  -43.246597  -23.995838  0
-81.636307  -39.690300  -30.532085  0
-83.371704  -35.969536  -37.033012  0
-84.599152  -33.048050  -30.004337  0
-87.079529  -26.411856  -29.471466  0
-88.016769  -19.527517  -29.034470  0
-4.969031  -82.976059  38.451275  0
-2.338293  -86.066643  32.574501  0
-9.457861  -85.125938  33.197357  0
-13.886400  -87.261215  27.743420  0
-18.298660  -89.386314  22.128349  0
-47.585686  -83.623245  9.771187  0
-40.966469  -86.886078  9.891585  0
-44.913410  -86.918503  3.383656  0
-42.247627  -90.322090  -3.098186  0
-39.416328  -93.500282  -9.751348  0
-36.249443  -96.016281  -16.633595  0
-43.264359  -92.895691  -16.650948  0
-46.847824  -91.738708  -23.652571  0
64.688919  -74.113708  -30.862898  0
62.519188  -76.646240  -38.028000  0
59.951439  -79.981018  -31.352007  0
54.556244  -85.534195  -31.842758  0
48.372162  -90.480942  -32.281219  0
22.074966  -100.384186  -10.897997  0
26.068008  -100.150818  -18.091385  0
18.194878  -101.899216  -18.018864  0
14.130611  -103.129868  -25.250069  0
9.861658  -103.836769  -32.552994  0
5.388296  -103.758751  -39.839733  0
1.644768  -104.269058  -32.191422  0
-6.455039  -104.015984  -31.757885  0
-14.387016  -103.329559  -31.288128  0
71.824226  -29.612637  38.418411  0
75.242203  -28.183182  32.620895  0
72.803436  -34.718891  33.259682  0
73.831627  -39.746876  27.910053  0
74.258301  -44.527031  22.114117  0
61.298214  -71.683121  9.729688  0
65.812515  -65.808319  9.779127  0
64.821915  -69.831436  3.259891  0
67.860611  -67.537140  -3.377170  0
70.390953  -64.850372  -10.090469  0
72.396423  -61.816589  -16.810345  0
68.718948  -68.217896  -16.914701  0
66.798737  -71.307861  -23.832956  0
81.228638  38.319565  -29.975498  0
82.470779  35.222351  -36.803055  0
82.777809  31.200426  -30.298512  0
83.972733  23.938486  -30.646282  0
84.863388  16.519012  -30.971708  0
86.558746  -9.503828  -10.945071  0
86.576744  -5.990210  -17.649208  0
87.461090  -13.353315  -17.498756  0
88.070808  -17.296066  -24.154840  0
88.550385  -21.281448  -30.894936  0
88.567795  -25.293777  -37.665073  0
87.319000  -28.638882  -30.663536  0
84.705421  -35.591248  -30.460314  0
81.995621  -42.426773  -30.259808  0
3.197121  103.862289  -71.862335  0
-3.840727  104.125916  -80.566040  0
7.597327  102.009781  -82.208435  0
10.982382  94.278473  -89.471893  0
12.894569  83.966568  -91.183624  0
40.776447  55.655586  -87.604248  0
32.517776  58.796867  -87.435410  0
33.724419  49.966488  -87.907654  0
26.886993  44.431549  -88.952255  0
20.468075  39.147346  -90.710526  0
14.371372  33.888859  -91.565369  0
21.761795  31.300222  -91.714012  0
22.863264  23.561726  -91.548325  0
23.721561  16.019073  -91.380035  0
-86.879028  30.253401  -64.936951  0
-88.443672  25.028446  -71.399353  0
-87.179787  33.220123  -73.205246  0
-84.137161  35.230003  -80.876221  0
-76.275208  35.000408  -84.452484  0
-44.841496  55.297440  -89.430496  0
-50.191864  48.505898  -90.946999  0
-41.476101  47.026276  -89.764557  0
-38.038254  39.109764  -90.917328  0
-34.726524  31.442600  -91.484436  0
-31.477554  23.994806  -91.632805  0
-26.652752  30.241131  -91.577072  0
-18.862801  28.865614  -91.317780  0
-11.452024  27.274220  -90.259369  0
-60.706680  -76.461639  -67.371231  0
-56.923203  -79.548233  -74.480713  0
-62.492744  -73.279633  -75.379700  0
-63.974838  -69.596962  -83.498871  0
-63.067329  -63.364067  -89.435043  0
-71.019287  -24.933771  -91.409912  0
-66.096817  -32.357868  -91.562744  0
-61.859947  -24.443930  -91.203323  0
-53.017513  -23.880219  -91.359940  0
