#!ascii version of lh.surftest_inner_skull_surface
10242 20480
58.007492  33.137100  33.452286  0
-7.334388  95.135391  -20.219898  0
-5.675094  94.797256  -23.706326  0
-3.864002  95.222923  -20.440571  0
-0.455025  95.312042  -20.587433  0
3.008395  95.383369  -20.682102  0
41.435612  81.044312  -10.545721  0
40.153664  82.252693  -13.893916  0
43.269470  80.296478  -13.724584  0
45.098854  79.382156  -16.978661  0
46.847542  78.175812  -20.348663  0
48.350311  76.530457  -23.785954  0
49.871941  75.655487  -20.180117  0
52.629539  72.849960  -19.985636  0
-30.702484  64.732735  32.377392  0
-32.206848  65.180084  29.877434  0
-29.725416  66.552147  30.174591  0
-28.828114  68.584259  28.009430  0
-27.942814  70.785461  25.739504  0
-7.226137  93.734581  -0.381609  0
-10.637617  92.843933  -0.217782  0
-9.019667  94.019897  -3.418897  0
-10.812140  94.232651  -6.506592  0
-12.625183  94.337067  -9.658307  0
-14.456666  94.274780  -12.888477  0
-10.893554  94.975693  -13.112117  0
-9.100712  95.235870  -16.660080  0
-72.824387  17.677586  -18.120628  0
-72.260605  19.077518  -20.837627  0
-72.439133  20.828344  -18.342636  0
-72.076477  24.040916  -18.554642  0
-71.674469  27.317097  -18.746433  0
-58.718292  63.533363  -9.984965  0
-60.159218  62.402161  -13.152946  0
-58.215309  65.459053  -13.054060  0
-57.446259  67.218910  -16.273216  0
-56.422535  68.725342  -19.549801  0
-55.170517  69.989166  -22.831244  0
-54.141911  71.583588  -19.435745  0
-51.689629  74.335060  -19.292772  0
-49.038681  76.966248  -19.148117  0
-67.725555  -12.296455  32.384476  0
-68.815842  -13.915056  29.793228  0
-68.748352  -10.382211  29.673893  0
-69.524483  -8.603861  26.956051  0
-70.157715  -6.931119  24.309971  0
-72.940445  18.379499  -1.614435  0
-73.288597  15.184855  -1.502987  0
-73.422714  16.719208  -4.281953  0
-73.779884  15.028398  -6.998331  0
-74.008789  13.326397  -9.719019  0
-74.141144  11.625616  -12.397535  0
-73.722549  14.815422  -12.563124  0
-73.318390  16.260929  -15.364281  0
-45.795235  -78.853790  -17.442192  0
-47.000275  -77.721283  -20.513378  0
-48.133045  -76.547409  -17.603302  0
-50.461960  -74.158066  -17.789715  0
-52.724174  -71.508438  -18.006905  0
-69.873718  -38.339287  -9.719166  0
-69.416000  -39.844788  -12.395076  0
-70.656067  -36.791031  -12.289833  0
-71.355225  -35.197388  -14.863008  0
-71.997726  -33.581898  -17.418030  0
-72.622833  -31.954319  -19.945713  0
-73.001190  -30.437260  -17.229622  0
-73.845154  -27.237667  -17.060856  0
-74.507263  -24.002052  -16.933308  0
-12.530085  -74.517815  32.137917  0
-11.690637  -76.345566  29.879997  0
-14.348371  -75.899261  30.141647  0
-16.331732  -77.235367  27.992836  0
-18.376747  -78.366562  25.644482  0
-44.273087  -77.073311  -0.619080  0
-41.538403  -78.686661  -0.436522  0
-43.271492  -78.363953  -3.176202  0
-42.382973  -79.756607  -5.761214  0
-41.512611  -81.254524  -8.435141  0
-40.556595  -82.773819  -11.223166  0
-43.027168  -80.631805  -11.403999  0
-44.455532  -79.825439  -14.404736  0
50.616573  -72.051514  -18.250137  0
49.619118  -73.153831  -21.254654  0
48.507004  -74.599380  -18.339745  0
46.203934  -77.146988  -18.449627  0
43.658859  -79.595291  -18.562576  0
6.359091  -93.122192  -9.156870  0
8.068177  -93.897079  -12.142057  0
4.624234  -92.937767  -12.172556  0
2.934331  -92.569283  -15.174345  0
1.314397  -91.983414  -18.159395  0
-0.179701  -91.170029  -21.081131  0
-1.317986  -90.996643  -18.028267  0
-3.711885  -90.455727  -17.920547  0
-6.124118  -90.443085  -17.825386  0
60.359779  -39.087601  34.707245  0
62.166618  -38.340958  31.962292  0
60.652672  -41.428570  32.270397  0
60.891373  -43.725353  29.718754  0
61.015137  -45.984497  27.031815  0
48.612907  -70.960648  -1.061042  0
50.802452  -68.400650  -0.975891  0
50.115829  -70.057755  -3.769095  0
51.597900  -69.107513  -6.525216  0
53.035347  -68.062210  -9.357218  0
54.362953  -66.872803  -12.249838  0
52.284981  -69.530960  -12.313787  0
51.484512  -70.850571  -15.276127  0
68.346436  28.016209  -18.671017  0
68.109833  26.351803  -21.294609  0
68.946915  24.748276  -18.687807  0
69.505104  21.570633  -18.671009  0
70.097977  18.463291  -18.637878  0
75.325150  -19.645084  -9.261982  0
76.063881  -18.072966  -12.026606  0
75.714767  -21.624584  -11.929102  0
75.952255  -23.587000  -14.616899  0
76.074036  -25.535007  -17.319981  0
76.093369  -27.486443  -20.067177  0
75.229836  -29.010084  -17.189320  0
74.192108  -32.365059  -17.098753  0
73.000488  -35.625786  -17.042564  0
9.967533  67.983398  -51.399681  0
7.684439  65.848938  -52.976875  0
10.437368  64.507004  -51.928017  0
10.637071  61.306778  -52.376068  0
10.555693  58.544914  -52.878647  0
22.309128  30.747063  -68.622627  0
19.001362  31.697376  -68.135323  0
19.907314  28.883331  -69.505402  0
17.562075  26.991512  -70.015076  0
15.387083  25.139565  -70.280556  0
13.373499  23.307022  -70.463455  0
16.375835  22.562572  -71.759003  0
17.412725  19.740326  -73.118942  0
18.405514  16.538351  -74.198761  0
-60.248901  32.696739  -53.869606  0
-59.938530  30.065525  -56.390190  0
-58.324188  33.496880  -56.677124  0
-56.109261  34.176277  -59.436348  0
-53.528412  34.657997  -62.048916  0
-16.112770  36.398880  -68.392784  0
-18.496332  34.327072  -69.509666  0
-15.499517  33.717819  -68.706604  0
-14.887808  31.053724  -69.172394  0
-14.266752  28.344355  -69.690277  0
-13.673199  25.624557  -70.182175  0
-11.538076  27.675657  -68.974670  0
-8.965790  26.934204  -68.183769  0
-6.746494  26.206619  -67.364151  0
-57.416183  -58.819214  -55.796242  0
-55.366600  -59.479027  -58.851913  0
-57.785583  -56.225647  -58.891590  0
-57.952896  -53.357162  -61.843765  0
-57.928547  -50.243866  -64.705765  0
-44.449020  -8.087254  -72.676086  0
-44.373497  -9.991365  -75.217667  0
-42.329254  -7.424398  -74.955116  0
-39.716698  -7.127377  -76.967194  0
-36.756218  -7.189097  -78.657959  0
-33.627022  -7.496943  -80.001457  0
-34.410095  -4.870356  -77.410095  0
-32.267616  -3.117525  -76.188278  0
-30.459488  -1.720774  -75.378204  0
29.948654  -77.750351  -57.363449  0
31.226627  -75.547501  -60.176102  0
27.533367  -76.542206  -60.092514  0
25.024719  -74.968582  -62.730980  0
22.417885  -72.951889  -65.122406  0
-6.782672  -52.138496  -79.113823  0
-4.033851  -51.025146  -78.756577  0
-6.259953  -49.049599  -80.500839  0
-5.722771  -46.079449  -81.961395  0
-5.201762  -43.260185  -83.479843  0
-4.716073  -40.593987  -85.081970  0
-7.438832  -41.036491  -84.703018  0
-9.554198  -38.583652  -85.648727  0
-11.521389  -35.901569  -86.287025  0
64.648743  6.169607  -54.399239  0
62.912025  7.758924  -56.905647  0
62.800442  4.055320  -56.908546  0
60.421532  1.998741  -59.017792  0
57.557243  0.075636  -60.482349  0
39.795204  -20.414141  -79.409576  0
39.358860  -17.118782  -78.021820  0
36.837265  -19.134224  -79.824341  0
34.006973  -17.823229  -80.232269  0
31.254784  -16.406775  -80.630165  0
28.603315  -14.867797  -80.993408  0
28.595062  -18.389751  -81.455399  0
26.085457  -20.205395  -82.089287  0
23.698273  -21.863216  -82.782440  0
-23.070873  15.719078  64.048569  0
-22.579620  18.777729  63.348534  0
-20.529167  17.120243  64.666061  0
-17.960300  18.464672  65.233101  0
-15.366436  19.747313  65.727829  0
-4.061590  16.547287  69.485550  0
-6.040581  18.486412  68.528618  0
-3.370116  19.410767  68.570435  0
-2.661917  22.214542  67.599045  0
-1.953808  24.950554  66.613525  0
-1.231255  27.629585  65.667610  0
0.749647  25.699806  66.555099  0
3.531724  26.400639  66.433228  0
6.405988  27.048717  66.187965  0
-24.851112  -20.288078  69.464844  0
-27.536556  -18.690338  68.552826  0
-25.067226  -16.798717  69.405411  0
-25.234894  -13.400038  69.243835  0
-25.343388  -10.046044  69.005486  0
-17.934288  1.449213  70.005272  0
-20.377411  -0.092676  69.499817  0
-20.140747  3.090003  68.853767  0
-22.305634  4.741217  67.604721  0
-24.423450  6.392884  66.284920  0
-26.503172  8.041119  64.916458  0
-24.009224  9.534493  65.530457  0
-23.553951  12.639172  64.779083  0
7.009336  -33.005196  71.018448  0
4.842710  -35.620827  70.405884  0
3.906731  -32.238068  71.422234  0
0.852087  -31.396839  71.724121  0
-2.161789  -30.472794  71.915283  0
-9.807333  -18.445675  72.851608  0
-9.255673  -21.668688  72.690979  0
-11.954913  -20.486567  72.435814  0
-14.206961  -22.568924  71.967392  0
-16.547747  -24.704258  71.385864  0
-18.938675  -26.880913  70.626495  0
-19.363304  -23.303726  70.891624  0
-22.128139  -21.829222  70.247406  0
26.328583  -1.817335  67.701599  0
27.773371  -4.748171  67.313347  0
24.993450  -4.722725  68.563599  0
23.593925  -7.615393  69.361359  0
22.119371  -10.509738  70.095444  0
9.811710  -15.437170  73.408791  0
12.828409  -15.803179  72.872131  0
10.962497  -18.512548  72.981155  0
12.104960  -21.653084  72.462708  0
13.244490  -24.866995  71.838974  0
14.373268  -28.147202  71.078049  0
11.219534  -27.617733  71.725372  0
9.137722  -30.332317  71.456390  0
9.329734  27.625313  65.783356  0
8.415068  24.876354  66.813995  0
10.417029  22.594717  67.369789  0
12.389565  20.214363  67.851707  0
13.063276  6.702348  71.500320  0
14.174749  9.537676  70.604782  0
15.942041  6.813836  70.696930  0
18.814631  6.872254  69.727768  0
21.655594  6.896938  68.613129  0
24.456871  6.909396  67.379715  0
23.296520  4.010522  68.375893  0
24.847151  1.101495  68.063591  0
40.064014  76.659119  4.948548  0
42.700737  74.573135  5.113850  0
40.497898  74.577316  7.706642  0
40.835136  72.462479  10.334915  0
41.094604  70.333542  12.874878  0
34.903706  65.681580  23.771271  0
37.054993  65.820847  21.859505  0
37.074409  63.696472  24.047920  0
39.268143  61.707779  24.327724  0
41.505833  59.805218  24.632452  0
43.842834  58.032478  25.025402  0
41.558033  58.056061  26.949219  0
41.707451  56.465019  29.423466  0
41.944740  54.844063  32.129288  0
7.393433  91.734917  5.187467  0
9.011082  92.333725  2.105569  0
10.561893  90.796494  5.011561  0
13.632664  89.871140  4.866581  0
16.665960  88.957733  4.785328  0
25.701115  81.027588  12.444574  0
24.847626  83.045731  10.084288  0
27.730841  81.638306  10.082140  0
29.861420  82.141449  7.526637  0
31.979595  82.459991  4.764821  0
33.999329  82.556213  1.842198  0
34.765167  80.589554  4.761449  0
37.436611  78.649460  4.821445  0
-8.403791  75.814621  35.857658  0
-10.693983  76.952560  33.366058  0
-7.315104  78.035248  33.609661  0
-6.136160  80.230499  31.244173  0
-4.862657  82.326447  28.739780  0
7.765786  83.672646  21.048378  0
4.899834  84.788834  21.900352  0
6.205979  85.733521  18.968956  0
4.525337  87.742661  16.688580  0
2.684095  89.586548  14.177258  0
0.682938  91.111801  11.441658  0
4.250090  90.359451  11.153984  0
5.810131  91.062195  8.181121  0
-70.909607  31.428448  3.350020  0
-71.013763  33.129486  0.625607  0
-70.306374  34.747990  3.312481  0
-69.462769  37.988800  3.285578  0
-68.421066  41.078133  3.276786  0
-62.461975  50.044632  11.338089  0
-63.779373  49.123451  8.715759  0
-62.273712  51.992825  8.785176  0
-61.824883  53.872002  6.063433  0
-61.137718  55.563805  3.275180  0
-60.368366  57.047489  0.563200  0
-58.864937  58.059700  3.346336  0
-56.491009  60.309944  3.550242  0
-54.166191  62.444572  3.865474  0
-64.357414  14.258900  30.501400  0
-65.736069  12.615194  28.210939  0
-65.224442  15.696648  28.030045  0
-66.022430  17.136173  25.586220  0
-66.769371  18.591990  23.160089  0
-67.155045  31.044424  18.423920  0
-67.562088  27.904369  18.413364  0
-68.168808  29.537430  16.015320  0
-69.060486  27.970377  13.555120  0
-69.842163  26.372725  11.065910  0
-70.532776  24.770508  8.562679  0
-70.290749  28.035019  8.557032  0
-70.656540  29.722208  5.992525  0
-54.174370  -67.617676  4.117805  0
-55.422173  -66.735825  1.366983  0
-56.205269  -65.096283  3.931062  0
-58.113510  -62.480995  3.695174  0
-59.871498  -59.694649  3.382728  0
-64.488281  -49.459694  10.140737  0
-63.899727  -50.797974  7.581204  0
-64.992531  -47.926765  7.408080  0
-65.327065  -46.465042  4.881847  0
-65.738617  -45.119476  2.516749  0
-66.355133  -43.839878  0.185205  0
-66.904053  -42.386810  2.637658  0
-68.156189  -39.570343  2.763373  0
-69.383392  -36.614143  2.865955  0
-36.640118  -67.857033  33.150864  0
-35.575249  -70.008316  30.765179  0
-38.426590  -68.514267  30.614038  0
-40.197250  -69.010796  28.013577  0
-41.921242  -69.357651  25.391552  0
-52.345406  -62.972908  19.205191  0
-50.308060  -65.525848  19.596775  0
-51.748436  -65.347290  17.088634  0
-50.971710  -67.556229  14.769625  0
-50.051750  -69.547615  12.311998  0
-49.014816  -71.345238  9.775034  0
-51.533447  -69.078255  9.610758  0
-52.899811  -68.410828  6.863630  0
37.876022  -78.692184  4.145446  0
36.992699  -80.061562  1.545015  0
35.314693  -80.401688  4.090713  0
32.752022  -82.047142  4.045096  0
30.114199  -83.661484  4.029429  0
18.952618  -85.568848  12.069551  0
20.733896  -86.168739  9.636129  0
17.727608  -86.931152  9.724176  0
16.452600  -88.276154  7.406286  0
15.072226  -89.637680  5.082204  0
13.520294  -90.963989  2.605280  0
11.723446  -90.046852  5.060375  0
8.387968  -90.008949  4.827035  0
5.178763  -89.544968  4.443932  0
43.719193  -61.073761  34.501938  0
46.607262  -61.225563  32.258347  0
44.157478  -63.433311  31.874283  0
44.390358  -65.645111  29.013369  0
44.323017  -67.580078  25.996758  0
35.317810  -76.170837  19.659153  0
38.000732  -74.584267  19.839832  0
37.204033  -75.833801  17.123817  0
38.939850  -75.287872  14.536558  0
40.556145  -74.649368  12.009088  0
42.156647  -74.011063  9.517948  0
39.656693  -76.014221  9.381079  0
38.761295  -77.359497  6.749660  0
71.425087  14.959008  2.945946  0
71.884811  13.505374  0.127418  0
71.913994  11.859999  2.814640  0
72.408356  8.693575  2.709985  0
72.829987  5.474001  2.629840  0
72.492462  -5.538675  10.242676  0
72.819778  -4.098775  7.746830  0
72.757065  -7.259055  7.757251  0
72.905228  -8.965726  5.271822  0
73.035751  -10.640968  2.850405  0
73.263077  -12.306573  0.508031  0
72.851791  -13.763985  3.005071  0
72.687042  -16.896755  3.189405  0
72.509613  -20.099066  3.399880  0
30.212694  59.523712  -49.630493  0
27.578026  58.186142  -51.318462  0
30.503281  56.398258  -51.134262  0
30.580694  53.523693  -52.310944  0
30.523935  51.078285  -53.414772  0
39.040459  44.891796  -57.312664  0
36.034023  45.784950  -57.070610  0
36.804573  43.477371  -59.458992  0
34.484299  41.697365  -61.239502  0
32.265148  39.719284  -62.645180  0
30.249699  37.739464  -63.814358  0
33.056892  36.779167  -64.413910  0
33.816811  33.675865  -65.806488  0
34.503315  30.536613  -66.868881  0
-42.433853  53.052204  -51.098587  0
-42.170139  51.552811  -53.425915  0
-39.868614  53.502487  -53.054314  0
-37.144012  53.595905  -54.836891  0
-34.620544  53.379883  -56.397549  0
-24.096012  61.080399  -58.028267  0
-26.604931  58.576622  -58.858929  0
-23.322117  59.145996  -60.894012  0
-22.274162  56.538315  -63.796547  0
-21.026573  53.218102  -66.155914  0
-19.739819  49.469116  -67.605309  0
-16.775990  52.051460  -66.390671  0
-13.133629  50.314014  -65.206467  0
-10.447578  48.459724  -63.249382  0
-70.688568  -30.822033  -52.021263  0
-70.028458  -31.026039  -55.237640  0
-70.055771  -27.577990  -54.358696  0
-68.674408  -24.354980  -56.343750  0
-66.566811  -21.362497  -57.825912  0
-60.612602  -12.070470  -57.946602  0
-60.120140  -13.850917  -58.023834  0
-57.866249  -11.867292  -58.930485  0
-55.255814  -11.521676  -60.127666  0
-52.829971  -11.132652  -61.714745  0
-50.674789  -10.740910  -63.642342  0
-51.120888  -9.035257  -62.851555  0
-49.821037  -6.683288  -64.123283  0
-48.693382  -4.139767  -65.456123  0
3.580778  -78.003204  -51.914520  0
4.400220  -76.673172  -54.914299  0
2.325359  -76.821388  -54.187263  0
1.155463  -75.752075  -56.529598  0
-0.152432  -74.756042  -58.955246  0
-13.114421  -76.065475  -63.046219  0
-9.887608  -75.168381  -63.583496  0
-12.179031  -73.918289  -65.828720  0
-11.237959  -71.433380  -68.496391  0
-10.300905  -68.600342  -70.954453  0
-9.404509  -65.458633  -73.104691  0
-12.750477  -66.959595  -73.047424  0
-15.286201  -65.190582  -75.025642  0
-17.900646  -63.271275  -76.895584  0
65.792542  -19.422028  -52.555565  0
63.295944  -17.570885  -54.215942  0
64.605537  -19.797140  -53.777969  0
63.857506  -19.934235  -55.172737  0
63.458511  -20.186382  -57.206573  0
64.126785  -36.005150  -64.368622  0
64.671402  -31.224308  -64.732681  0
62.409267  -33.600155  -67.626595  0
60.002823  -31.161865  -70.710144  0
56.977180  -28.824024  -73.410332  0
53.534420  -26.702690  -75.572922  0
54.255497  -31.458946  -75.968384  0
51.355438  -34.088814  -78.238533  0
48.211826  -36.697227  -80.220276  0
-52.118183  39.076149  35.915825  0
-51.759079  41.396416  35.051819  0
-50.344166  40.489586  37.071640  0
-48.536240  42.054760  38.205582  0
-46.631424  43.755455  39.290310  0
-37.178856  43.675262  47.565559  0
-39.016438  44.960922  45.500259  0
-36.716385  46.624786  46.422771  0
-36.203133  49.622185  45.127014  0
-35.610992  52.595936  43.624157  0
-34.902550  55.522087  41.849781  0
-33.114426  54.302902  44.295174  0
-30.526016  55.942146  44.888626  0
-27.859520  57.487610  45.403854  0
-20.608747  30.935986  60.702488  0
-22.769573  32.576706  59.446213  0
-20.051435  33.837784  59.977608  0
-19.533882  36.639153  59.278221  0
-19.068398  39.497818  58.586304  0
-9.065987  49.322403  57.151176  0
-12.131971  48.186653  57.177917  0
-11.351336  51.365662  55.715622  0
-13.611921  53.355614  54.104435  0
-15.832092  55.252640  52.338753  0
-18.008257  57.036659  50.445709  0
-14.998997  58.230137  50.563309  0
-14.131590  61.100883  48.684006  0
-13.229569  63.862625  46.708511  0
-12.296604  66.506775  44.630493  0
-10.048893  64.849426  46.616692  0
-6.830293  65.710594  46.397812  0
-3.594284  66.446091  46.056976  0
10.052773  61.013824  47.837494  0
7.739931  63.282036  46.984150  0
10.798424  63.024475  45.151405  0
11.429477  64.714088  42.508015  0
11.986015  66.256027  40.012798  0
12.508194  67.795227  37.657570  0
14.035254  65.581474  38.378113  0
15.931257  65.136841  37.027687  0
17.892807  64.925491  35.832344  0
-53.123940  -44.164337  35.772545  0
-54.751671  -42.755611  34.675087  0
-53.662151  -41.506104  36.667912  0
-54.293259  -38.858212  37.486542  0
-55.044319  -36.235085  38.252678  0
-54.511757  -27.058113  47.769329  0
-55.555336  -28.647415  44.935665  0
-56.585716  -25.312702  46.065262  0
-58.468674  -23.530178  44.289474  0
-60.141479  -21.746880  42.496758  0
-61.682835  -19.988798  40.745373  0
-60.547035  -18.121323  43.304970  0
-60.573006  -14.424305  43.793869  0
-60.372368  -10.805111  43.976471  0
-37.785240  -11.962908  63.725952  0
-40.355766  -13.800500  62.461487  0
-40.155907  -10.245163  62.223465  0
-42.412521  -8.537766  60.581551  0
-44.536987  -6.857645  58.824394  0
-47.011154  6.562248  53.787239  0
-47.520306  3.234399  54.337608  0
-49.359314  4.889395  52.446083  0
-51.652462  3.181398  50.975494  0
-53.858711  1.438637  49.363426  0
-55.948914  -0.322097  47.618530  0
-55.515572  3.131965  47.261200  0
-57.085167  4.819212  45.052689  0
-58.555862  6.487717  42.748024  0
-59.918125  8.126392  40.371986  0
-58.031258  9.775719  42.272076  0
-57.482635  12.992825  41.802063  0
-56.928734  16.144753  41.346718  0
-49.828953  27.018131  44.996483  0
-51.891739  25.429871  43.588707  0
-51.390823  28.486736  42.934082  0
-52.826733  29.917847  40.817726  0
-54.152504  31.305172  38.675659  0
-55.391220  32.645538  36.526039  0
-53.406490  34.135586  37.799408  0
-52.682419  36.714890  36.843758  0
17.438074  -71.910545  37.796829  0
15.267462  -73.191574  36.188175  0
14.578142  -71.315430  38.516335  0
11.947753  -70.677841  38.967106  0
9.637625  -70.213318  39.349762  0
2.878713  -64.823822  48.068523  0
3.627478  -66.612831  45.599316  0
0.740195  -66.516617  46.385178  0
-1.425837  -67.940933  44.494038  0
-3.544625  -69.108376  42.455082  0
-5.557397  -70.115402  40.337448  0
-6.390593  -68.365005  42.619579  0
-9.073807  -67.653046  42.780365  0
-11.690273  -67.117554  43.102219  0
-4.112766  -45.325317  66.191833  0
-3.271119  -48.339344  64.326324  0
-6.353288  -47.486847  64.772728  0
-8.576534  -49.542351  63.309021  0
-10.802328  -51.543098  61.815170  0
-24.591312  -51.667641  58.180458  0
-21.451389  -53.048538  58.453232  0
-23.624752  -54.626656  56.437675  0
-22.576164  -57.543144  54.503494  0
-21.411095  -60.300484  52.303543  0
-20.126648  -62.752045  49.809319  0
-23.490913  -61.605446  50.078171  0
-25.581085  -62.773376  47.768089  0
-27.622478  -63.802162  45.367466  0
-29.564234  -64.704315  42.905869  0
-30.735872  -62.134453  44.981689  0
-33.552597  -60.178108  44.289036  0
-36.017616  -58.141617  43.442261  0
-42.678459  -46.147366  46.146317  0
-41.883926  -48.993622  44.881561  0
-44.245743  -47.231346  43.979828  0
-45.872318  -48.334957  41.787109  0
-47.521729  -49.402573  39.497047  0
-49.098984  -50.374344  37.061256  0
-49.687103  -47.503677  38.261688  0
-51.508278  -45.726440  36.967140  0
63.551926  -1.916220  37.211079  0
64.502548  -4.416365  36.097534  0
63.098900  -4.538383  38.573868  0
62.581707  -7.298427  39.837204  0
61.987213  -10.178398  40.983932  0
54.515114  -16.884281  49.896042  0
56.679214  -16.683069  47.639389  0
55.618351  -19.848013  48.483086  0
56.650330  -22.780743  46.959129  0
57.611137  -25.703751  45.302567  0
58.447311  -28.601454  43.478363  0
56.248283  -28.957474  45.846695  0
54.706772  -32.185341  46.229095  0
53.029144  -35.350666  46.469330  0
33.580589  -17.117672  65.142548  0
36.430275  -17.202641  63.524788  0
34.956215  -20.329563  64.256241  0
36.271069  -23.547430  63.215950  0
37.527260  -26.782890  62.011848  0
33.798210  -42.748116  58.890747  0
35.943062  -39.684902  59.147499  0
36.706696  -42.734207  57.044502  0
39.492966  -42.626190  55.066055  0
42.134270  -42.424629  53.008247  0
44.644508  -42.142723  50.920807  0
42.526405  -45.224129  50.727058  0
42.690788  -47.878647  48.325287  0
42.673424  -50.313839  45.853249  0
42.592545  -52.490788  43.442299  0
40.037125  -52.623650  45.051193  0
37.526802  -54.559525  44.235092  0
35.235802  -56.346306  43.566757  0
22.793663  -59.964020  47.012825  0
25.653147  -60.117798  45.816185  0
23.337185  -62.004646  45.204002  0
23.916451  -64.264481  43.378571  0
24.473862  -66.644424  41.340630  0
24.916527  -68.925522  39.038269  0
22.095280  -68.637268  40.394596  0
19.732185  -70.396111  39.207077  0
19.965893  64.879608  34.648697  0
19.577854  62.973892  36.594589  0
21.349163  61.012215  37.312241  0
23.132679  59.083546  38.014854  0
25.481737  48.282558  45.647064  0
25.815603  50.745506  43.813705  0
27.790190  48.825588  44.870190  0
30.448326  49.502441  44.103168  0
33.429642  50.153851  43.074585  0
36.514427  50.593407  41.625000  0
36.050880  47.905827  43.887840  0
38.578671  45.476051  44.368279  0
40.894604  42.939026  44.592171  0
21.136946  29.374029  62.603218  0
22.044477  32.291313  61.001610  0
24.075819  29.654121  61.395004  0
26.954269  29.835350  60.052505  0
29.756760  29.927227  58.606560  0
40.342834  21.440636  55.194946  0
38.622063  24.313637  55.382225  0
41.239395  24.260790  53.714844  0
42.107925  27.042820  52.152992  0
42.934856  29.796936  50.479462  0
43.685425  32.517075  48.666336  0
45.444191  29.658478  48.578979  0
47.875305  29.460178  46.575012  0
50.230835  29.207088  44.495728  0
52.522636  28.898487  42.347218  0
51.801880  26.220758  44.186989  0
53.252571  23.238544  43.760956  0
54.614571  20.282089  43.255268  0
54.917351  6.512708  46.782173  0
55.668350  9.200184  45.298790  0
56.921944  6.368876  44.581291  0
58.794800  6.205772  42.302025  0
60.524399  6.017371  39.949337  0
62.103088  5.791975  37.529778  0
61.567024  3.307332  39.118790  0
62.574287  0.660397  38.211727  0
52.936195  50.065063  -39.275337  0
54.107430  47.932384  -38.563320  0
54.935608  49.731079  -37.161415  0
56.782585  49.248611  -34.817337  0
58.471447  48.603981  -32.291092  0
62.863853  53.324898  -18.779640  0
62.680054  51.141518  -21.675720  0
63.520462  49.918835  -18.645107  0
64.004547  46.664742  -18.551027  0
64.477066  43.585350  -18.488457  0
65.075676  40.622688  -18.456257  0
65.447357  42.394184  -15.743790  0
66.410316  41.113831  -12.965748  0
67.316299  39.720814  -10.134954  0
52.397949  64.231842  5.109859  0
54.166546  63.258560  2.188665  0
54.293125  61.445480  4.880071  0
56.124352  58.850563  4.664670  0
58.091003  56.381607  4.531892  0
63.483738  45.050858  13.471666  0
63.411293  47.140102  10.577883  0
64.835922  43.861992  10.537115  0
66.004440  42.579090  7.559900  0
66.984978  41.212120  4.573972  0
67.778328  39.761593  1.584718  0
68.074081  37.970016  4.433021  0
69.023987  34.653030  4.246731  0
69.765900  31.226521  4.031478  0
70.252365  27.755413  3.794035  0
69.750015  29.241749  6.743128  0
69.560379  27.227882  9.363539  0
69.234055  25.218365  11.888900  0
65.143219  24.525322  24.903240  0
66.394882  23.526402  22.200859  0
65.812904  21.417709  24.338398  0
66.393173  18.365728  23.766506  0
66.902901  15.387003  23.225193  0
67.369354  12.505320  22.740932  0
66.439949  13.403400  25.275658  0
65.989471  11.408625  27.234249  0
65.560272  9.394908  29.102280  0
-19.778950  83.783401  -41.937233  0
-18.174622  82.035095  -43.759827  0
-17.285793  84.859573  -42.546799  0
-14.609497  85.775833  -43.314907  0
-11.700085  86.460327  -44.108715  0
0.520256  92.165817  -37.228245  0
-1.383984  90.842224  -40.211609  0
2.134609  90.566620  -40.503700  0
3.712230  88.341614  -43.517342  0
5.191542  85.465233  -46.056381  0
6.487530  82.085037  -47.932571  0
8.582017  84.269272  -45.703426  0
11.717091  82.836060  -45.119286  0
14.646120  81.236931  -44.404678  0
15.632122  93.133133  -10.803814  0
13.892231  93.907478  -14.090570  0
17.359276  93.053284  -14.135115  0
19.114096  92.875183  -17.542564  0
20.890221  92.532059  -21.031773  0
33.970108  85.321320  -27.932388  0
30.827244  87.158730  -28.033710  0
31.995569  85.195930  -31.428600  0
29.709801  84.484650  -34.621464  0
27.182007  83.201538  -37.307922  0
24.623701  81.514801  -39.459007  0
27.472172  79.628693  -39.282623  0
27.617268  75.959923  -40.658760  0
27.759205  72.605591  -41.668884  0
28.019432  69.809219  -42.674202  0
30.555054  70.986488  -41.454559  0
33.385971  69.344704  -41.284466  0
36.118034  67.657043  -41.177631  0
49.831696  66.469696  -35.451431  0
46.926910  65.968964  -37.921547  0
49.392395  63.558350  -37.693382  0
48.769989  60.456364  -39.650986  0
48.016541  57.298485  -41.204453  0
47.284515  54.411362  -42.331425  0
49.964661  54.786186  -40.706116  0
51.587978  52.349110  -40.025864  0
-50.581673  51.687378  30.376417  0
-52.201122  52.154148  28.125996  0
-50.079700  54.124741  28.627811  0
-49.431763  56.490990  26.636944  0
-48.579967  58.750359  24.378248  0
-38.988701  66.950027  20.175898  0
-41.442497  65.373108  19.842899  0
-40.763718  67.227325  17.668610  0
-42.563210  67.384735  15.138153  0
-44.388386  67.425873  12.577606  0
-46.216999  67.353317  9.957182  0
-43.869797  69.484436  10.328098  0
-43.279110  71.680855  7.885448  0
-42.571457  73.844269  5.235832  0
-18.266611  79.452271  21.797863  0
-20.980877  77.926537  21.449974  0
-19.908161  79.936646  19.106892  0
-21.565022  80.485458  16.595844  0
-23.290077  81.101517  14.147401  0
-23.669777  88.436081  0.209683  0
-24.946163  86.602776  3.309280  0
-26.840830  86.916794  0.238062  0
-29.843929  85.203003  0.196127  0
-32.665958  83.391098  0.087980  0
-35.388214  81.563156  -0.063231  0
-34.455994  83.398331  -3.008158  0
-36.214417  83.277573  -6.101323  0
-37.970547  83.074631  -9.191348  0
-39.733833  82.782722  -12.329048  0
-36.722507  84.620003  -12.356613  0
-35.289146  85.851791  -15.634237  0
-33.690407  86.703445  -18.959488  0
-21.336655  91.709579  -25.817341  0
-24.407883  90.315323  -25.643661  0
-22.848701  90.533157  -28.884382  0
-24.206398  89.089127  -31.856281  0
-25.327909  87.295624  -34.676632  0
-26.146610  85.082947  -37.238720  0
-23.457813  86.516388  -37.473110  0
-21.557566  85.305588  -39.887970  0
-73.859344  4.060081  -37.499313  0
-72.935242  5.140404  -39.988098  0
-73.268463  7.009157  -37.744377  0
-72.552505  9.981745  -38.007477  0
-71.729950  12.962236  -38.282188  0
-69.733200  24.459129  -31.526558  0
-69.777206  22.655344  -33.932556  0
-68.994919  25.704605  -34.286125  0
-68.141586  26.873993  -37.081894  0
-67.163376  27.964977  -39.880409  0
-66.063835  28.992435  -42.669456  0
-66.149536  31.127235  -40.169159  0
-64.922256  34.351875  -40.397171  0
-63.391106  37.534275  -40.537254  0
-69.821701  39.425285  -10.706202  0
-70.145264  37.661369  -13.532484  0
-69.183220  40.837685  -13.587753  0
-68.445129  42.178558  -16.463226  0
-67.627792  43.454300  -19.335035  0
-62.615479  55.412346  -25.849941  0
-63.740265  52.084213  -25.636404  0
-62.268841  53.134773  -28.710464  0
-61.649529  50.857327  -31.345440  0
-60.912827  48.712883  -33.772858  0
-60.243092  46.762131  -36.053986  0
-58.844971  49.415394  -36.404354  0
-56.591331  49.999237  -38.869850  0
-54.190353  50.480988  -41.165676  0
-51.719330  50.898506  -43.292397  0
-52.616615  53.010174  -41.542778  0
-51.069336  55.769764  -41.906326  0
-49.424759  58.709236  -42.156136  0
-47.024963  72.485291  -35.289925  0
-46.709213  69.853851  -37.786865  0
-44.344948  72.319199  -37.697868  0
-41.677704  72.031281  -39.745995  0
-39.051140  71.760551  -41.530193  0
-36.415730  71.536011  -43.127670  0
-36.485249  73.661880  -41.302078  0
-33.914360  75.252167  -41.097961  0
-31.469471  76.687180  -40.971081  0
-62.113480  -37.509930  29.699293  0
-63.417564  -39.184383  27.675434  0
-64.068939  -36.316494  28.116440  0
-66.018677  -35.075466  26.209831  0
-67.781540  -33.696766  23.933710  0
-71.471985  -20.428699  18.939621  0
-71.206909  -23.809666  18.860718  0
-71.717102  -22.084866  16.213202  0
-71.840569  -23.757805  13.511469  0
-71.854836  -25.440849  10.833632  0
-71.772293  -27.113644  8.192484  0
-72.308090  -23.846390  8.359054  0
-72.779495  -22.261505  5.892442  0
-73.235214  -20.673708  3.422525  0
-69.957771  5.975181  18.808479  0
-70.421173  2.776144  18.957197  0
-70.845963  4.320107  16.454773  0
-71.684982  2.622427  14.054735  0
-72.434700  0.877316  11.588224  0
-74.418076  2.015546  -1.299295  0
-74.164978  0.445823  1.308593  0
-74.460098  -1.284792  -1.310901  0
-74.437531  -4.538598  -1.328573  0
-74.387749  -7.765383  -1.349021  0
-74.320038  -10.996441  -1.380014  0
-74.607971  -9.424936  -3.903818  0
-74.834137  -11.082115  -6.469024  0
-75.030029  -12.731750  -9.063112  0
-75.164719  -14.353283  -11.665388  0
-75.275833  -11.109962  -11.675528  0
-75.416458  -9.480297  -14.302540  0
-75.461685  -7.858452  -16.892750  0
-74.601318  4.922890  -22.266270  0
-75.013176  1.707353  -22.091885  0
-74.898026  3.299113  -24.618759  0
-75.223083  1.663985  -27.059006  0
-75.442169  0.012364  -29.600826  0
-75.449120  -1.619539  -32.169464  0
-75.141693  1.483895  -32.281818  0
-74.607117  2.841157  -34.928909  0
-32.488907  -82.835693  -39.554955  0
-33.128784  -81.699486  -41.881683  0
-34.847923  -81.323196  -39.533688  0
-37.407066  -79.834091  -39.534367  0
-40.098557  -78.228180  -39.594540  0
-50.286316  -71.586227  -32.208336  0
-48.694931  -72.539734  -34.776573  0
-51.061142  -70.053238  -34.782288  0
-51.964874  -68.645416  -37.411919  0
-52.958008  -67.308701  -40.193249  0
-53.981155  -65.981308  -43.118797  0
-55.223732  -64.628555  -40.147362  0
-57.380928  -61.878754  -40.075600  0
-59.476547  -59.111183  -40.043167  0
-59.067585  -61.228848  -10.274584  0
-58.160400  -62.689400  -12.972574  0
-59.371086  -59.719055  -13.046222  0
-59.671928  -58.332314  -15.762098  0
-60.088013  -56.948471  -18.501747  0
-66.605461  -45.328705  -23.585865  0
-64.963463  -48.227631  -23.716503  0
-65.774750  -46.563881  -26.238106  0
-65.151802  -47.836632  -28.714687  0
-64.776596  -49.224449  -31.225166  0
-64.500168  -50.696037  -33.993195  0
-66.191650  -47.618202  -33.826736  0
-67.437653  -45.844841  -36.603172  0
-68.388596  -43.867332  -39.393768  0
-69.102623  -41.693970  -42.055115  0
-69.481972  -40.628014  -39.109756  0
-70.446075  -37.476288  -38.918266  0
-71.372017  -34.450768  -38.830986  0
-74.880119  -24.955116  -30.212576  0
-74.498085  -26.301750  -33.045158  0
-75.134857  -23.068615  -32.850235  0
-75.191368  -21.173019  -35.469940  0
-75.045944  -19.288029  -38.047115  0
-74.697929  -17.430101  -40.554115  0
-75.192154  -16.252625  -37.754738  0
-75.217316  -13.297438  -37.467949  0
-75.167557  -10.393171  -37.235260  0
8.556789  -77.447250  29.122540  0
9.596869  -78.917358  27.037235  0
7.076371  -78.768417  27.318890  0
5.523272  -80.132050  25.384094  0
3.949754  -81.386543  23.345348  0
-7.266605  -83.052200  19.702946  0
-4.463022  -83.240837  19.496601  0
-6.157146  -84.121094  17.156729  0
-5.088961  -85.137177  14.695641  0
-3.964762  -86.137802  12.124002  0
-2.758998  -87.002731  9.356691  0
-5.398199  -86.769516  9.533175  0
-6.742055  -87.359444  7.019509  0
-8.119170  -88.035339  4.605778  0
-31.051041  -76.951653  20.782619  0
-28.093603  -78.028488  20.774780  0
-29.855633  -78.461929  18.220329  0
-28.621016  -79.886528  15.633959  0
-27.358017  -81.247093  13.039927  0
-30.672825  -85.209763  0.380310  0
-28.702101  -84.908096  2.979614  0
-27.610809  -86.576523  0.480643  0
-24.472820  -87.702850  0.521309  0
-21.289352  -88.626266  0.502690  0
-18.029877  -89.343231  0.398240  0
-19.931175  -90.057480  -2.221169  0
-18.395157  -91.194115  -5.165364  0
-16.718071  -91.895828  -8.276731  0
-14.997002  -92.136726  -11.432826  0
-18.624275  -92.232452  -11.158525  0
-20.513548  -92.322693  -14.116503  0
-22.332691  -92.163040  -17.119122  0
-35.138649  -87.218552  -23.229053  0
-32.094185  -88.808609  -23.176983  0
-33.362053  -87.609108  -26.313404  0
-31.542503  -87.709244  -29.229549  0
-29.801868  -87.690491  -31.900589  0
-28.186823  -87.738144  -34.384895  0
-30.898365  -86.019096  -34.575226  0
-31.785219  -84.321899  -37.131561  0
58.785515  -60.185886  -38.094482  0
58.242409  -61.104420  -40.719440  0
56.940063  -62.524055  -38.512360  0
54.991425  -64.909264  -38.982590  0
52.895889  -67.319527  -39.496315  0
44.187202  -76.402756  -32.905853  0
45.436737  -74.948730  -35.379169  0
42.934738  -77.164001  -35.669956  0
41.803482  -78.038712  -38.612900  0
40.583397  -78.921234  -41.841370  0
39.018456  -79.560394  -45.259583  0
37.880997  -81.296036  -42.408569  0
34.883369  -83.557358  -43.078041  0
31.493244  -85.477882  -43.741661  0
33.225529  -85.786682  -9.495911  0
34.935905  -85.362732  -12.504768  0
32.177528  -87.170944  -12.469107  0
30.946550  -88.474457  -15.570585  0
29.523689  -89.621887  -18.758474  0
14.980537  -93.936401  -25.362350  0
18.811508  -93.515579  -25.461765  0
16.613766  -93.504959  -28.862213  0
18.223330  -92.834900  -32.410751  0
19.759373  -91.804100  -35.828972  0
21.158054  -90.467926  -38.928528  0
17.128172  -90.275192  -38.770851  0
14.624657  -88.118912  -40.995331  0
12.397338  -85.885437  -42.677437  0
10.407224  -83.900436  -44.191544  0
9.157355  -85.012726  -41.791218  0
6.190586  -84.268105  -40.861774  0
3.542905  -83.771164  -40.015907  0
-4.994854  -87.574066  -31.361637  0
-3.656761  -86.499702  -33.904861  0
-6.198804  -86.966400  -33.769176  0
-7.442107  -86.525482  -36.187729  0
-8.728909  -86.251205  -38.665382  0
-10.126560  -86.056091  -41.267891  0
-11.530558  -87.338150  -38.794483  0
-14.579651  -88.411560  -38.997620  0
-17.970135  -89.150757  -39.215088  0
67.876328  -13.833359  30.126841  0
68.734131  -13.121376  27.453098  0
68.490005  -16.097658  28.164093  0
68.945541  -18.317438  26.029533  0
69.233917  -20.478363  23.785162  0
67.202957  -34.318573  20.292511  0
68.098236  -31.068066  19.958607  0
68.015175  -33.155983  17.454468  0
68.801956  -31.958338  14.690983  0
69.599564  -30.719238  11.963261  0
70.390121  -29.433224  9.241289  0
69.544708  -32.767662  9.447676  0
69.383835  -34.809906  6.850640  0
69.070297  -36.800407  4.162610  0
54.577934  -59.225296  21.080147  0
56.828560  -56.415764  21.282310  0
56.006859  -58.165298  18.155100  0
57.292549  -56.928047  15.219772  0
58.411613  -55.571842  12.336651  0
58.401634  -57.510410  -0.939074  0
58.944393  -55.919464  1.663492  0
60.144646  -54.709404  -0.998046  0
61.801640  -51.837017  -1.048642  0
63.357567  -48.949593  -1.098270  0
64.872040  -46.110695  -1.151064  0
64.397781  -47.728333  -3.752304  0
65.469833  -46.539139  -6.379350  0
66.594154  -45.382381  -8.993883  0
67.771294  -44.236244  -11.628259  0
66.170921  -47.088001  -11.665608  0
65.643570  -48.772869  -14.438246  0
64.958794  -50.372360  -17.264053  0
58.291641  -61.172081  -23.176777  0
59.969913  -58.429504  -23.004814  0
59.174904  -59.717766  -25.741024  0
60.046608  -58.280823  -28.262966  0
60.918282  -56.891243  -30.671646  0
61.856720  -55.567886  -32.930038  0
60.121464  -58.042191  -33.175949  0
59.397423  -59.150772  -35.612709  0
58.879032  39.282646  -37.573372  0
58.948059  38.074638  -39.853401  0
60.211273  36.694611  -37.778130  0
61.469872  33.919449  -38.051926  0
62.627487  31.045830  -38.340508  0
68.041908  20.475536  -31.536118  0
67.066742  22.087215  -34.032394  0
68.268265  19.123306  -34.165764  0
68.527451  17.711662  -36.918449  0
68.680069  16.155209  -39.829426  0
68.564041  14.410294  -42.856125  0
69.748260  12.821393  -40.187881  0
70.641144  9.372068  -40.529911  0
71.376740  5.861878  -40.837860  0
72.548660  7.268083  -10.593218  0
72.249840  8.952076  -13.218844  0
72.857666  5.803217  -13.090582  0
73.334030  4.343483  -15.640211  0
73.916901  2.828930  -18.275396  0
76.857635  -11.254213  -23.763966  0
76.381187  -7.633081  -23.838802  0
76.507523  -9.534218  -26.708527  0
76.025604  -7.826482  -29.627636  0
75.431473  -6.128372  -32.552643  0
74.689026  -4.443769  -35.505352  0
75.250381  -8.041612  -35.614410  0
74.765930  -10.014790  -38.773758  0
73.846886  -12.026184  -41.898598  0
72.488060  -13.987822  -44.785500  0
74.061043  -15.632687  -41.918587  0
74.174301  -19.190571  -41.814209  0
74.195312  -22.683495  -41.576668  0
74.553329  -34.940960  -31.417168  0
74.731979  -33.207401  -34.609062  0
73.668457  -36.582676  -34.202705  0
72.607002  -38.077896  -36.858765  0
71.476761  -39.397907  -39.279419  0
70.443771  -40.574200  -41.415768  0
70.049995  -42.373459  -38.807373  0
68.570953  -45.108261  -38.334393  0
67.125214  -47.717953  -37.884033  0
-12.521940  73.800072  -50.018906  0
-13.418996  71.878937  -50.526581  0
-11.137482  71.958420  -51.560314  0
-9.571280  69.975800  -53.260254  0
-7.772866  67.485786  -54.832184  0
-0.677669  56.510853  -54.603165  0
-2.117379  57.732105  -54.953613  0
-1.683638  54.423660  -54.599030  0
-2.508873  52.417305  -54.885906  0
-3.400854  50.479801  -55.539383  0
-4.452774  48.640663  -56.548096  0
-3.267595  47.492638  -55.510231  0
-2.979797  44.740410  -55.741795  0
-2.523040  42.104324  -56.273575  0
17.707365  52.668461  -56.613914  0
14.723183  53.498810  -55.923912  0
14.933178  50.845680  -57.834755  0
12.199114  48.513767  -58.414101  0
9.889684  45.822502  -58.254990  0
8.491601  32.873161  -61.593094  0
7.953153  35.336372  -60.073174  0
6.714994  33.283371  -60.247074  0
4.914364  33.877708  -59.303135  0
3.054693  34.583706  -58.663040  0
1.291212  35.318047  -58.257118  0
1.642939  32.784218  -59.600597  0
0.454569  31.123093  -60.575745  0
-0.463967  29.603069  -61.648834  0
-1.288809  28.139372  -62.952782  0
-0.156809  27.524044  -63.088966  0
0.233414  25.342133  -64.702431  0
0.674881  22.895834  -66.271904  0
6.774538  15.914963  -71.550232  0
4.709706  16.738758  -70.336227  0
5.264615  14.046919  -71.934570  0
3.699579  12.112625  -72.229462  0
2.242254  10.236334  -72.432419  0
1.000152  8.577383  -72.670059  0
3.147491  7.668301  -73.512924  0
4.157553  5.411109  -74.379333  0
5.076998  3.373307  -75.281006  0
-68.324951  8.181438  -49.548622  0
-68.037094  5.939750  -51.444191  0
-67.023018  8.632582  -52.102066  0
-65.590668  8.965084  -54.744362  0
-63.967178  9.179430  -57.419220  0
-56.597900  18.657551  -65.001099  0
-57.730072  15.461075  -64.182076  0
-55.153091  15.526525  -66.591125  0
-53.438942  12.298494  -67.720123  0
-51.526779  9.075188  -68.283066  0
-49.569363  6.035892  -68.344246  0
-48.606911  9.076859  -69.665573  0
-45.614803  9.125029  -70.822998  0
-42.568756  9.179062  -71.686653  0
-40.370354  42.428413  -64.278633  0
-42.737865  39.949081  -65.009186  0
-39.483307  39.369102  -66.131065  0
-38.517952  36.297031  -67.599030  0
-37.527100  33.285271  -68.836266  0
-27.076284  26.003082  -72.160637  0
-29.943657  26.556541  -71.857849  0
-28.999107  23.605480  -72.865646  0
-30.895123  20.916134  -73.384521  0
-32.635822  18.044899  -73.556602  0
-34.149342  15.130182  -73.415009  0
-31.664764  14.898563  -73.681366  0
-30.877022  11.997869  -73.652519  0
-30.203190  9.246371  -73.731155  0
-29.419174  6.484453  -74.016975  0
-27.654762  9.095081  -74.424484  0
-24.787676  8.780090  -74.876129  0
-21.813562  8.348065  -74.870987  0
-12.335011  14.712725  -72.537994  0
-13.934851  12.143597  -73.012070  0
-11.996961  11.603006  -72.924614  0
-11.508402  8.616955  -73.026917  0
-10.962626  6.071884  -73.046921  0
-10.480675  4.050119  -73.282211  0
-8.806186  5.941858  -72.933990  0
-6.781950  6.018241  -72.773689  0
-4.994907  6.143404  -72.755493  0
-35.790215  -77.919968  -52.268250  0
-33.375160  -78.084862  -54.236160  0
-36.133911  -76.635727  -55.146904  0
-36.359207  -75.203140  -58.161942  0
-36.464397  -73.553848  -61.317116  0
-45.348770  -61.739761  -70.582977  0
-42.329575  -64.638580  -69.865479  0
-42.023232  -61.910286  -73.140564  0
-38.429268  -61.800484  -75.339432  0
-34.673840  -61.414551  -77.145264  0
-30.860477  -60.780632  -78.557076  0
-33.808838  -58.075546  -79.868698  0
-32.751701  -54.456032  -82.202499  0
-31.502380  -50.613167  -84.060944  0
-62.075912  -31.600067  -68.292221  0
-60.458412  -35.571075  -69.024994  0
-59.447548  -31.782864  -71.471863  0
-56.614376  -32.007786  -74.579956  0
-53.538116  -32.247288  -77.478348  0
-39.844948  -22.436684  -82.697342  0
-41.936806  -25.472828  -82.863014  0
-38.187096  -25.807726  -83.573593  0
-36.472183  -29.117950  -84.375839  0
-34.705444  -32.441551  -85.119797  0
-32.851494  -35.816959  -85.731125  0
-31.078316  -32.213432  -85.219238  0
-27.736607  -31.915352  -85.294983  0
-24.544361  -31.544483  -85.507263  0
-21.334545  -31.100243  -85.829712  0
-23.222910  -28.432224  -85.105865  0
-21.862656  -25.571636  -84.907181  0
-20.504459  -22.830147  -84.941475  0
-22.428936  -8.587134  -82.500641  0
-21.137943  -11.459696  -83.992271  0
-19.813927  -8.561764  -82.807785  0
-17.190327  -8.492687  -82.972305  0
-14.700800  -8.386818  -83.008698  0
-12.367136  -8.225767  -82.991913  0
-13.521962  -6.092884  -81.197311  0
-12.513368  -4.224248  -79.297028  0
-11.642340  -2.568299  -77.600586  0
55.172592  -62.860878  -52.772591  0
56.503586  -60.420593  -54.925278  0
54.018360  -62.671570  -56.043900  0
52.708511  -62.262772  -59.367664  0
51.217831  -61.657810  -62.781158  0
36.240669  -64.978096  -71.516449  0
40.127708  -63.492012  -71.266106  0
37.388725  -61.688499  -74.088470  0
38.443275  -58.107368  -76.415115  0
39.376343  -54.274872  -78.463821  0
40.154976  -50.231033  -80.228767  0
36.254021  -51.935829  -80.424759  0
33.100754  -49.456657  -81.868286  0
30.016113  -46.920094  -82.870071  0
8.151563  -68.002594  -65.542023  0
10.937585  -67.882401  -66.547760  0
9.093761  -65.335464  -67.714127  0
9.976007  -62.616425  -69.823349  0
10.833403  -59.844490  -71.923866  0
6.806188  -47.615788  -79.561783  0
8.719322  -49.657204  -78.205711  0
9.555940  -46.838558  -80.173096  0
12.320945  -46.039360  -80.873932  0
15.125666  -45.196068  -81.656403  0
18.027573  -44.262993  -82.493538  0
15.954372  -41.967445  -83.167572  0
16.799608  -38.596325  -84.320274  0
17.618715  -35.102821  -84.995560  0
18.313839  -31.560366  -85.152863  0
15.949599  -33.101746  -85.637009  0
14.441706  -31.118034  -86.522888  0
12.938435  -29.026674  -87.664787  0
-1.892206  -27.782602  -91.876816  0
2.076078  -26.621990  -92.269333  0
-0.860258  -23.621984  -92.210587  0
0.086484  -19.686218  -91.426682  0
0.815112  -16.348011  -89.812607  0
1.289026  -13.646006  -87.850739  0
-1.507834  -14.401212  -88.391006  0
-3.373059  -12.717070  -86.879364  0
-4.912303  -11.130103  -85.476997  0
58.366402  33.491142  -50.114624  0
56.539940  35.147194  -51.970955  0
57.794781  32.390518  -52.922386  0
56.956749  31.212292  -55.840477  0
55.716682  29.846508  -58.797356  0
53.172523  14.817719  -65.610245  0
52.908161  18.791319  -65.413696  0
50.140884  16.670025  -66.771271  0
47.166477  18.430403  -67.501228  0
44.289772  20.063816  -67.986282  0
41.435661  21.582064  -68.332291  0
41.941944  18.173653  -68.833847  0
39.667816  16.367954  -69.635712  0
37.428398  14.579216  -70.401154  0
52.308060  -11.038381  -59.797150  0
51.774605  -8.724344  -60.163971  0
49.984898  -9.507864  -61.364395  0
48.004021  -7.869256  -63.118973  0
46.141945  -6.099802  -65.018784  0
36.520565  -5.484996  -72.681808  0
38.187042  -4.775192  -71.300644  0
35.497421  -3.387979  -71.938454  0
34.700775  -1.281885  -71.681267  0
34.163269  1.301765  -71.721756  0
33.768883  4.390206  -71.820221  0
31.572227  2.675085  -72.263336  0
29.157181  4.048460  -72.669785  0
26.915829  5.419055  -73.104660  0
24.716600  6.794028  -73.656914  0
24.861130  3.663893  -73.460327  0
22.836327  2.140012  -73.824280  0
20.816669  0.815583  -74.234627  0
18.605331  -8.358078  -80.721954  0
18.073078  -5.715982  -78.522034  0
16.379599  -7.067925  -79.881737  0
14.456238  -5.882849  -79.043015  0
12.627884  -4.642757  -78.429497  0
10.641510  -3.303789  -78.095505  0
10.787014  -5.598341  -80.147781  0
8.566774  -6.586603  -81.747223  0
6.160629  -7.593903  -82.930008  0
-14.896186  9.051395  69.156181  0
-14.452881  12.090273  68.433273  0
-12.412386  10.362249  69.595833  0
-9.877949  11.576730  69.961037  0
-7.291184  12.671684  70.206024  0
-5.817801  7.848760  71.616402  0
-5.291811  10.733866  71.026932  0
-4.706771  13.644691  70.312637  0
-2.161040  14.518903  70.319916  0
0.399028  15.311453  70.275116  0
3.052706  16.007290  70.165588  0
-15.363628  -12.826008  72.121567  0
-17.923943  -11.417082  71.506844  0
-15.603354  -9.660653  72.064987  0
-15.747610  -6.476139  71.878304  0
-15.779121  -3.300395  71.524155  0
